0.27656 -0.75302 0.20257 -0.90035 -0.39979 0.17185
0.27128 -0.74819 0.18517 -0.93858 -0.24837 0.23953
0.022014 -0.81697 0.26359 0.74502 0.50359 -0.43742
0.0037067 -0.81841 0.24669 -0.86608 0.43603 -0.24451
-0.2457 -0.75807 0.17234 0.88679 -0.21213 0.41061
0.022861 -0.83439 0.24017 0.82134 0.52108 -0.23211
-0.0042695 -0.83904 0.1965 -0.86003 0.48608 0.15513
-0.24642 -0.77029 0.16829 0.83753 -0.25174 0.48495
0.29047 -0.79239 0.18867 -0.86869 -0.36333 0.3367
0.27157 -0.78059 0.1615 -0.80696 -0.30345 0.50668
0.02879 -0.84934 0.21551 0.89225 0.45084 0.025229
-0.006177 -0.84834 0.21233 -0.9154 0.38833 0.10601
-0.24665 -0.78458 0.1603 0.76013 -0.29777 0.57752
0.052188 -0.86879 0.16776 0.79043 0.42211 0.4439
-0.029652 -0.8697 0.17284 -0.77925 0.43371 0.45239
-0.25176 -0.80701 0.15606 0.73969 -0.24816 0.62552
0.28585 -0.82431 0.15959 -0.79994 -0.18784 0.56992
0.045274 -0.88034 0.19451 0.88937 0.34835 0.2961
-0.052881 -0.88771 0.15644 -0.6574 0.4304 0.61853
-0.25823 -0.83716 0.15529 0.75567 -0.11017 0.64562
0.292 -0.85645 0.16221 -0.79992 -0.068455 0.5962
0.068642 -0.90258 0.16621 0.77287 0.35247 0.52767
-0.067657 -0.90447 0.15267 -0.62033 0.40143 0.67383
-0.25755 -0.86784 0.15281 0.71732 0.026603 0.69624
0.27425 -0.89662 0.14376 -0.63225 0.08582 0.77
0.080342 -0.93441 0.17355 0.7212 0.48435 0.49525
-0.093433 -0.93026 0.14778 -0.47568 0.47933 0.73755
-0.14455 -0.92017 0.12331 -0.10262 0.41766 0.90279
-0.20248 -0.9081 0.12569 0.30835 0.29355 0.90485
-0.25115 -0.8943 0.14927 0.6316 0.11337 0.76696
0.27485 -0.93411 0.15123 -0.59523 0.25883 0.76073
0.22966 -0.93935 0.12978 -0.28048 0.35053 0.89357
0.17501 -0.94703 0.12724 0.091098 0.45339 0.88664
0.115 -0.95188 0.15347 0.50793 0.53487 0.67522
-0.14117 -0.94839 0.14023 -0.17616 0.51967 0.83601
-0.20247 -0.93215 0.13327 0.2579 0.36472 0.89469
-0.24658 -0.93063 0.15507 0.56932 0.30042 0.76526
0.2387 -0.97568 0.152 -0.30419 0.54274 0.78288
0.18921 -0.97925 0.14624 0.030331 0.60147 0.79832
0.14255 -0.97468 0.15407 0.35211 0.60145 0.71714
-0.18281 -0.96628 0.14821 0.082682 0.54919 0.8316
0.041556 0.58425 0.26533 -0.15839 -0.19044 -0.96884
0.0075247 0.58678 0.26799 -0.017207 -0.21836 -0.97572
-0.025302 0.58625 0.26659 0.11984 -0.22398 -0.9672
-0.054056 0.58173 0.26192 0.24388 -0.21488 -0.9457
0.016813 0.56214 0.27285 -0.063651 -0.16103 -0.9849
-0.016675 0.56318 0.27225 0.080146 -0.16857 -0.98243
-0.049621 0.56264 0.26725 0.22763 -0.16953 -0.95888
0.070225 0.53761 0.26657 -0.27514 -0.1029 -0.95588
0.041677 0.53255 0.27381 -0.15707 -0.093263 -0.98317
0.017699 0.53651 0.27589 -0.060963 -0.097732 -0.99334
-0.012662 0.53695 0.27588 0.059977 -0.091185 -0.99403
-0.046077 0.53799 0.2716 0.20847 -0.10003 -0.9729
-0.077783 0.53814 0.2619 0.34203 -0.10265 -0.93407
0.047067 0.51223 0.27399 -0.17956 -0.035782 -0.9831
0.016772 0.51161 0.27744 -0.052428 -0.031009 -0.99814
-0.01178 0.51274 0.27744 0.056284 -0.035229 -0.99779
-0.043635 0.51325 0.27359 0.19025 -0.03753 -0.98102
-0.076411 0.51453 0.26451 0.3321 -0.050339 -0.9419
0.048768 0.49214 0.27405 -0.18127 -0.012612 -0.98335
0.017783 0.49135 0.27765 -0.055901 -0.0065445 -0.99841
-0.011631 0.49123 0.27766 0.055077 -0.0042958 -0.99847
-0.042994 0.49156 0.27404 0.18384 -0.0065977 -0.98293
-0.07534 0.49236 0.26552 0.32139 -0.014586 -0.94684
0.049631 0.47212 0.27402 -0.18469 0.0019019 -0.9828
0.018138 0.47244 0.27765 -0.05567 -0.0012312 -0.99845
-0.011574 0.4722 0.27765 0.055548 0.0011059 -0.99846
-0.042751 0.47195 0.27408 0.18141 0.0036854 -0.9834
-0.074752 0.47184 0.26581 0.31551 0.004756 -0.94891
0.050807 0.45147 0.27351 -0.19645 0.02253 -0.98025
0.018874 0.45274 0.27761 -0.061993 0.010895 -0.99802
-0.011202 0.45318 0.27765 0.055614 0.0075421 -0.99842
-0.042227 0.45225 0.27405 0.18237 0.015797 -0.9831
-0.07394 0.45106 0.26582 0.31427 0.026627 -0.94896
0.054142 0.42721 0.2719 -0.22876 0.080234 -0.97017
0.020707 0.43068 0.27699 -0.076485 0.04943 -0.99584
-0.0093278 0.43261 0.27744 0.047788 0.036111 -0.9982
-0.040181 0.43117 0.2739 0.18241 0.048794 -0.98201
-0.071046 0.42777 0.26571 0.30904 0.074943 -0.94809
0.024497 0.40592 0.27456 -0.10568 0.11975 -0.98716
-0.0077824 0.40715 0.27583 0.043854 0.11665 -0.9922
-0.033749 0.41006 0.27352 0.16063 0.11575 -0.9802
0.027107 0.37796 0.26977 -0.12504 0.22479 -0.96635
-0.0033519 0.38337 0.27237 0.031829 0.20582 -0.97807
0.085112 -0.25632 0.22171 -0.28542 -0.82467 -0.48832
0.056566 -0.25255 0.22731 -0.16325 -0.8384 -0.52004
0.028791 -0.25168 0.23164 -0.077165 -0.83357 -0.54699
0.00092476 -0.25236 0.23445 0.0063024 -0.82619 -0.56336
-0.028138 -0.25371 0.2336 0.10108 -0.82344 -0.55833
-0.061791 -0.25703 0.22906 0.22005 -0.81192 -0.5407
0.14038 -0.28282 0.22014 -0.48309 -0.73881 -0.46987
0.11082 -0.27369 0.23109 -0.37612 -0.76148 -0.5279
-0.092261 -0.26848 0.23078 0.32165 -0.78393 -0.53103
-0.12067 -0.28374 0.23258 0.42047 -0.73412 -0.53317
0.16229 -0.30172 0.2242 -0.55774 -0.67746 -0.47955
-0.14852 -0.3009 0.23105 0.52294 -0.67873 -0.51562
0.18511 -0.32403 0.22613 -0.61648 -0.62507 -0.47878
-0.17392 -0.32036 0.2272 0.59995 -0.63688 -0.48419
0.20684 -0.34827 0.22729 -0.67765 -0.55925 -0.47752
-0.19848 -0.34264 0.22384 0.66625 -0.58955 -0.45667
0.22763 -0.37537 0.22472 -0.75869 -0.46654 -0.45468
-0.22246 -0.3693 0.21879 0.74531 -0.51442 -0.42412
-0.24472 -0.39736 0.20729 0.83231 -0.41824 -0.36378
0.25568 -0.43106 0.22019 -0.87237 -0.27146 -0.40655
0.23588 -0.42659 0.25167 -0.77795 -0.30632 -0.5486
-0.23735 -0.42873 0.24886 0.79637 -0.32098 -0.51261
-0.25218 -0.42695 0.21945 0.86007 -0.32866 -0.39021
0.24682 -0.45409 0.24929 -0.82453 -0.21578 -0.52306
0.25731 -0.50013 0.24599 -0.86212 -0.13116 -0.48943
-0.27666 -0.49952 0.20263 0.93511 -0.14489 -0.32338
0.26029 -0.52308 0.24546 -0.87153 -0.087804 -0.48242
-0.26814 -0.52597 0.23363 0.8999 -0.099592 -0.42457
-0.27766 -0.52257 0.20835 0.94119 -0.10023 -0.32267
0.26333 -0.54862 0.2426 -0.88808 -0.01597 -0.45941
-0.2663 -0.54939 0.24 0.89192 -0.015644 -0.45192
-0.27925 -0.54999 0.20859 0.94948 -0.009029 -0.31371
0.26519 -0.57392 0.23772 -0.90557 0.05358 -0.4208
-0.26482 -0.57447 0.24174 0.89078 0.057788 -0.45075
-0.27768 -0.57577 0.21076 0.94409 0.072833 -0.32154
0.26167 -0.5987 0.24064 -0.89166 0.1121 -0.43861
-0.26323 -0.59842 0.23989 0.89726 0.11344 -0.42668
0.25928 -0.6219 0.23933 -0.88841 0.15347 -0.43263
-0.2613 -0.62188 0.23649 0.90456 0.16181 -0.39444
0.26126 -0.64496 0.2242 -0.90871 0.21182 -0.3597
0.25214 -0.66547 0.23434 -0.88956 0.22701 -0.39641
-0.24893 -0.66953 0.23861 0.87407 0.2749 -0.40055
0.24384 -0.6806 0.2422 -0.87986 0.19347 -0.43406
-0.24015 -0.69309 0.24065 0.84727 0.33698 -0.41058
0.24914 -0.68135 0.22956 -0.94423 -0.15531 -0.29037
0.24125 -0.67792 0.24827 -0.89235 0.0056605 -0.45132
-0.23276 -0.70543 0.24424 0.85609 0.30344 -0.41838
-0.23983 -0.71639 0.21361 0.96879 0.18453 -0.16554
0.26089 -0.70644 0.19488 -0.94916 -0.30288 0.085814
0.2579 -0.70139 0.18143 -0.98238 -0.15452 0.10511
-0.23682 -0.72772 0.16674 0.96592 0.064807 0.25059
-0.23329 -0.7331 0.15544 0.91212 -0.048657 0.40703
0.25968 -0.73527 0.15948 -0.90707 -0.18577 0.37778
0.047863 -0.84876 0.2286 0.18701 0.93275 -0.30822
0.050203 -0.84666 0.23689 -0.024429 0.9221 -0.38618
0.040457 -0.84556 0.24211 -0.1004 0.90176 -0.42042
-0.032828 -0.84809 0.24216 0.087393 0.89994 -0.42717
-0.045639 -0.85417 0.22185 0.026863 0.96084 -0.27581
-0.029728 -0.85363 0.20564 -0.33727 0.93793 -0.080816
-0.22932 -0.75102 0.14564 0.84347 -0.051356 0.53472
0.24724 -0.76428 0.13128 -0.78115 -0.050042 0.62233
0.028176 -0.84525 0.2044 0.6464 0.76209 -0.03727
0.01417 -0.85252 0.2336 -0.076398 0.91158 -0.40395
-0.016412 -0.85405 0.23225 0.046305 0.91787 -0.39418
-0.011172 -0.84062 0.18023 -0.6969 0.68671 0.20678
-0.22565 -0.76543 0.13852 0.77302 -0.086089 0.62852
0.25461 -0.77566 0.13963 -0.78452 -0.14421 0.6031
0.041932 -0.85178 0.16566 0.69705 0.63546 0.33212
-0.031023 -0.84093 0.14177 -0.63115 0.54721 0.54974
-0.21804 -0.79154 0.1288 0.66904 -0.0056542 0.7432
0.26303 -0.80908 0.13832 -0.68397 -0.20332 0.7006
0.22718 -0.81133 0.11172 -0.50323 -0.028683 0.86368
0.065086 -0.86025 0.14158 0.62591 0.53114 0.57108
-0.040334 -0.85611 0.14604 -0.63038 0.51258 0.58299
-0.1003 -0.84754 0.10677 -0.17225 0.44308 0.87978
-0.15783 -0.83016 0.10259 0.22565 0.24981 0.94163
-0.20314 -0.80698 0.11791 0.48733 -0.062335 0.87099
0.22477 -0.83348 0.10922 -0.40838 -0.001909 0.91281
0.17872 -0.84592 0.098245 -0.10568 0.16117 0.98125
0.11207 -0.86471 0.11247 0.34739 0.39456 0.85067
-0.086331 -0.86333 0.12001 -0.35335 0.40405 0.84373
-0.14219 -0.84173 0.10266 0.027 0.17788 0.98368
-0.16538 -0.84024 0.10439 0.15152 0.081961 0.98505
-0.21209 -0.82042 0.12089 0.4808 -0.10114 0.87098
0.25386 -0.84679 0.1255 -0.5712 -0.0054558 0.82079
0.20379 -0.86136 0.10432 -0.22648 0.13066 0.96521
0.14469 -0.87272 0.10523 0.17982 0.25453 0.9502
0.084509 -0.88214 0.1375 0.60961 0.35253 0.71
-0.10743 -0.87399 0.11604 -0.28657 0.304 0.90855
-0.16472 -0.86089 0.10652 0.099073 0.13657 0.98566
-0.21799 -0.84489 0.12191 0.47497 -0.022293 0.87972
0.24108 -0.87761 0.11984 -0.44891 0.11294 0.88641
0.18183 -0.88985 0.10634 -0.039347 0.23742 0.97061
0.12118 -0.89728 0.12013 0.39134 0.31515 0.8646
-0.11747 -0.89672 0.1202 -0.27875 0.32382 0.90413
-0.17721 -0.88606 0.11266 0.15311 0.22372 0.96255
-0.22758 -0.87179 0.12849 0.52036 0.10888 0.84697
0.21374 -0.9113 0.11668 -0.22381 0.26207 0.93874
0.15444 -0.92192 0.1188 0.18568 0.38333 0.90475
0.10773 -0.9216 0.13797 0.5111 0.40787 0.75659
0.04223 0.66115 0.24712 -0.13526 -0.25267 -0.95805
0.0088748 0.66501 0.24894 -0.025738 -0.26415 -0.96414
-0.020397 0.66529 0.2483 0.071775 -0.27153 -0.95975
-0.048618 0.6613 0.2458 0.1895 -0.26694 -0.9449
0.069692 0.64147 0.24685 -0.24271 -0.24046 -0.93982
0.038374 0.63912 0.25366 -0.12288 -0.23776 -0.96352
0.014571 0.64324 0.2545 -0.03972 -0.23781 -0.9705
-0.01324 0.64297 0.25454 0.049194 -0.22611 -0.97286
-0.042472 0.6422 0.25182 0.15688 -0.22222 -0.96229
-0.072888 0.64302 0.24433 0.28644 -0.22969 -0.93016
0.099494 0.62319 0.24127 -0.38499 -0.20071 -0.90083
0.070812 0.62048 0.25222 -0.25234 -0.21876 -0.94259
0.045415 0.62347 0.25629 -0.14105 -0.22988 -0.96294
0.017946 0.6238 0.25865 -0.042432 -0.22754 -0.97284
-0.0096936 0.62302 0.25891 0.045846 -0.21531 -0.97547
-0.038962 0.62083 0.25648 0.14406 -0.19165 -0.97083
-0.070328 0.62052 0.25036 0.26896 -0.18429 -0.94536
-0.1007 0.62129 0.23905 0.38801 -0.18943 -0.90198
0.085307 0.60484 0.25081 -0.32893 -0.17179 -0.9286
0.057357 0.60267 0.25876 -0.20019 -0.18686 -0.96177
0.027503 0.60585 0.26266 -0.084301 -0.22373 -0.971
-0.0033967 0.60686 0.26297 0.033527 -0.23882 -0.97048
-0.039433 0.60184 0.26055 0.17049 -0.21801 -0.96094
-0.069906 0.60027 0.25383 0.27103 -0.1719 -0.9471
-0.09988 0.59927 0.24343 0.38162 -0.1549 -0.91125
0.079106 0.58454 0.25638 -0.30319 -0.1682 -0.93797
-0.074432 0.58245 0.25577 0.30818 -0.18602 -0.93296
-0.10133 0.57932 0.2463 0.3958 -0.14299 -0.90714
0.13105 0.55996 0.23777 -0.51051 -0.13369 -0.84942
0.11074 0.56088 0.24877 -0.42693 -0.14378 -0.89278
0.087251 0.5626 0.2577 -0.32261 -0.16175 -0.93261
0.052121 0.55924 0.26793 -0.20087 -0.15782 -0.96682
-0.078155 0.56143 0.25886 0.33911 -0.15745 -0.92748
-0.10472 0.55964 0.24763 0.42794 -0.13243 -0.89405
-0.13253 0.55618 0.23308 0.52151 -0.095019 -0.84794
0.10299 0.53986 0.2547 -0.38798 -0.089785 -0.91728
-0.10634 0.53753 0.24978 0.44448 -0.095447 -0.89069
-0.13433 0.53538 0.23423 0.53948 -0.072977 -0.83883
0.1099 0.51495 0.25349 -0.42717 -0.04785 -0.90291
0.078107 0.51476 0.26598 -0.30257 -0.049571 -0.95184
-0.10676 0.51508 0.25172 0.44964 -0.055834 -0.89146
-0.13583 0.51383 0.23457 0.55451 -0.04333 -0.83105
0.11233 0.492 0.25309 -0.44058 -0.01017 -0.89766
0.080547 0.49275 0.26589 -0.31113 -0.01696 -0.95022
-0.10665 0.49273 0.25245 0.44854 -0.018297 -0.89357
-0.1364 0.49242 0.2349 0.56016 -0.015121 -0.82824
0.11348 0.47002 0.25229 -0.4514 0.022977 -0.89203
0.081804 0.47117 0.26555 -0.32051 0.011495 -0.94717
-0.10654 0.47185 0.25278 0.44746 0.0046357 -0.89429
-0.13662 0.47147 0.23496 0.56325 0.0084932 -0.82624
0.11488 0.44631 0.25052 -0.46537 0.074139 -0.882
0.083702 0.4487 0.26425 -0.33949 0.050286 -0.93926
-0.10578 0.45022 0.25275 0.44675 0.035037 -0.89397
-0.13579 0.44941 0.23483 0.5635 0.043127 -0.82499
0.11693 0.42161 0.24634 -0.48586 0.13525 -0.86351
0.086359 0.42426 0.26093 -0.36606 0.10875 -0.92422
-0.10288 0.42605 0.2527 0.43937 0.090075 -0.89378
-0.13328 0.42508 0.23463 0.55914 0.10052 -0.82296
0.088731 0.3993 0.25656 -0.38874 0.17344 -0.90488
0.057842 0.40174 0.26773 -0.26193 0.15286 -0.9529
-0.062237 0.40231 0.26549 0.28455 0.15089 -0.94671
-0.09468 0.39942 0.25278 0.41279 0.16637 -0.8955
0.089884 0.37563 0.25053 -0.39998 0.22599 -0.88822
0.060367 0.37639 0.26165 -0.28275 0.22813 -0.93167
-0.037886 0.37965 0.26705 0.18587 0.22506 -0.95645
-0.078282 0.37244 0.25363 0.35059 0.22807 -0.90834
-0.11544 0.37321 0.23544 0.50206 0.23546 -0.83216
0.089993 0.35282 0.24419 -0.39905 0.27003 -0.87626
0.058631 0.3522 0.2556 -0.26687 0.28834 -0.91959
0.031017 0.35571 0.26298 -0.13913 0.29574 -0.94508
-0.0077872 0.35444 0.26377 0.052232 0.30029 -0.95242
-0.048449 0.34939 0.25639 0.21779 0.28503 -0.93345
-0.076305 0.34968 0.24825 0.34474 0.29091 -0.89248
0.05844 0.3285 0.2476 -0.254 0.33938 -0.90571
0.019958 0.3298 0.25495 -0.081997 0.35599 -0.93088
-0.020801 0.32699 0.25359 0.09197 0.35593 -0.92997
-0.047865 0.32653 0.24895 0.22558 0.35539 -0.90709
0.10926 -0.25251 0.19403 -0.39081 -0.85124 -0.35023
-0.092213 -0.25039 0.19947 0.34997 -0.83619 -0.42226
0.16568 -0.2858 0.191 -0.59162 -0.73938 -0.32142
-0.14399 -0.28081 0.2051 0.52347 -0.75096 -0.40255
0.18925 -0.30741 0.1927 -0.65651 -0.68043 -0.32558
-0.16849 -0.29593 0.19658 0.61368 -0.70644 -0.35263
0.21053 -0.3304 0.19464 -0.71118 -0.62343 -0.3249
-0.19258 -0.31705 0.19324 0.67429 -0.66019 -0.33089
0.22822 -0.35522 0.19924 -0.77536 -0.53221 -0.33995
-0.21609 -0.34175 0.18949 0.741 -0.59915 -0.30321
0.25887 -0.40914 0.19341 -0.89484 -0.34628 -0.28168
0.24381 -0.40201 0.22259 -0.81613 -0.38224 -0.4334
0.2647 -0.45741 0.21497 -0.91295 -0.18756 -0.36242
-0.26148 -0.44965 0.21587 0.89536 -0.25306 -0.36645
0.26939 -0.47899 0.2131 -0.92264 -0.16195 -0.35002
-0.26583 -0.47232 0.21778 0.90607 -0.18949 -0.37832
-0.28045 -0.47782 0.17435 0.95913 -0.20641 -0.19354
0.28063 -0.503 0.19218 -0.95046 -0.15021 -0.27213
0.27152 -0.49977 0.21627 -0.91598 -0.14635 -0.37358
0.27432 -0.52531 0.21781 -0.92064 -0.07338 -0.38346
0.27683 -0.55295 0.213 -0.93692 0.019907 -0.34898
0.27787 -0.58168 0.20454 -0.95431 0.093357 -0.28388
0.27133 -0.60326 0.21689 -0.93404 0.11209 -0.33912
-0.27461 -0.60097 0.21071 0.93809 0.14866 -0.31288
0.27251 -0.62212 0.20496 -0.95019 0.16101 -0.26687
-0.27164 -0.62515 0.20559 0.94058 0.20859 -0.26794
0.27204 -0.64143 0.19193 -0.95617 0.2181 -0.19537
-0.26779 -0.64623 0.20032 0.94916 0.22903 -0.21596
0.2648 -0.66555 0.19385 -0.94311 0.26822 -0.19647
-0.26152 -0.67032 0.20248 0.93391 0.28576 -0.21483
0.25642 -0.68088 0.21085 -0.92995 0.24702 -0.27235
-0.25189 -0.69183 0.21013 0.90122 0.35561 -0.24767
0.2557 -0.69146 0.20194 -0.97222 0.15024 -0.17948
-0.24377 -0.71478 0.2003 0.90192 0.39803 -0.16765
0.25577 -0.70484 0.16636 -0.99046 0.062387 0.12286
-0.23569 -0.7366 0.17198 0.89869 0.43777 0.026787
0.24591 -0.72298 0.13574 -0.91592 0.081636 0.39297
-0.22595 -0.74906 0.14809 0.8956 0.36124 0.25961
0.2453 -0.72959 0.13326 -0.87048 -0.044357 0.4902
-0.21407 -0.75644 0.12527 0.81092 0.21707 0.54341
0.2301 -0.75761 0.11188 -0.71821 0.026682 0.69532
0.065373 -0.85664 0.15441 0.17862 0.96213 0.20593
0.065489 -0.85819 0.1775 -0.029328 0.9991 -0.030803
0.056087 -0.85735 0.19818 -0.11053 0.97951 -0.16835
-0.060478 -0.8591 0.17246 -0.0001445 0.99847 0.055311
-0.055461 -0.85259 0.14481 -0.23187 0.90376 0.3598
-0.20092 -0.77003 0.11367 0.67825 0.16558 0.71593
0.20762 -0.79233 0.098078 -0.50619 0.16304 0.84687
0.064184 -0.84772 0.13049 0.4206 0.75683 0.50031
0.040273 -0.86051 0.19782 -0.1749 0.9647 -0.19689
0.016086 -0.86639 0.18894 -0.095285 0.98393 -0.15098
-0.012107 -0.86538 0.19803 0.044848 0.97836 -0.202
-0.043315 -0.86068 0.20023 0.16741 0.96627 -0.19568
-0.061964 -0.85957 0.17983 0.16993 0.98377 -0.057661
-0.061086 -0.83654 0.11575 -0.33989 0.64229 0.68698
-0.14008 -0.8091 0.091905 0.23891 0.40296 0.88348
-0.19074 -0.78223 0.10722 0.55304 0.10483 0.82653
0.21256 -0.80679 0.10286 -0.49111 0.10477 0.86477
0.15945 -0.82444 0.089006 -0.1229 0.32911 0.93626
0.095924 -0.84422 0.10707 0.30955 0.5691 0.76178
-0.081238 -0.83623 0.10626 -0.2639 0.47701 0.83834
-0.14283 -0.8182 0.095262 0.17817 0.29706 0.93809
-0.19013 -0.79951 0.10875 0.50607 0.1277 0.85299
0.16943 -0.83947 0.0957 -0.12587 0.2899 0.94874
0.11736 -0.85046 0.10298 0.23075 0.455 0.86008
0.068211 0.72289 0.22432 -0.22201 -0.32039 -0.9209
0.034174 0.72605 0.22886 -0.090224 -0.31899 -0.94345
0.0077712 0.72648 0.23 -0.015002 -0.31328 -0.94954
-0.018075 0.72586 0.22978 0.053623 -0.30858 -0.94969
-0.046791 0.7258 0.22696 0.14956 -0.31884 -0.93593
-0.076739 0.722 0.22152 0.2848 -0.31621 -0.90493
0.097216 0.70511 0.22132 -0.3558 -0.29441 -0.88698
0.068378 0.7019 0.23183 -0.22043 -0.29341 -0.93023
0.042613 0.70576 0.23477 -0.11224 -0.30303 -0.94635
0.015278 0.70677 0.23617 -0.027106 -0.30427 -0.9522
-0.01099 0.70573 0.23635 0.039234 -0.29601 -0.95438
-0.038696 0.70336 0.23492 0.12045 -0.27505 -0.95385
-0.070241 0.70177 0.22996 0.2494 -0.2609 -0.93259
-0.10278 0.70265 0.21753 0.39942 -0.26824 -0.87665
0.082942 0.68614 0.23232 -0.28685 -0.25046 -0.92465
0.055555 0.68258 0.23951 -0.16686 -0.24825 -0.95422
0.026567 0.685 0.24251 -0.069816 -0.27637 -0.95851
-0.0025145 0.68666 0.24263 0.020825 -0.29369 -0.95567
-0.036579 0.68314 0.24112 0.13605 -0.28735 -0.94812
-0.06754 0.68158 0.23525 0.24118 -0.24246 -0.9397
-0.099389 0.68062 0.22517 0.37292 -0.22682 -0.89971
0.12988 0.66041 0.21885 -0.48539 -0.19531 -0.8522
0.10678 0.66284 0.22996 -0.37704 -0.22169 -0.89927
0.080317 0.66491 0.23835 -0.26687 -0.22848 -0.93626
-0.070935 0.66439 0.23917 0.27321 -0.26176 -0.92566
-0.099567 0.66239 0.22969 0.37819 -0.23015 -0.89666
-0.1299 0.66022 0.21496 0.49517 -0.20585 -0.84406
0.10953 0.64278 0.23287 -0.40125 -0.17778 -0.89855
-0.10089 0.64278 0.23418 0.38967 -0.22015 -0.89425
-0.12971 0.64175 0.21943 0.49324 -0.20705 -0.84489
-0.13011 0.62103 0.22425 0.49728 -0.18582 -0.84746
0.11244 0.60108 0.23969 -0.44128 -0.16597 -0.88189
-0.13037 0.59876 0.22887 0.49991 -0.14897 -0.85317
-0.15886 0.59668 0.20951 0.60572 -0.1282 -0.78528
0.16433 0.58619 0.20956 -0.62388 -0.17653 -0.76132
0.14336 0.57854 0.22719 -0.54048 -0.17071 -0.82386
0.11467 0.5815 0.24229 -0.43087 -0.19354 -0.88142
-0.13094 0.57665 0.23174 0.5056 -0.11383 -0.85523
-0.16002 0.57465 0.21176 0.61734 -0.093816 -0.78108
-0.16118 0.5536 0.21316 0.62895 -0.069204 -0.77436
0.13663 0.53728 0.23721 -0.52171 -0.081937 -0.84918
-0.16249 0.53299 0.21369 0.64208 -0.049008 -0.76507
0.1412 0.51341 0.23589 -0.54737 -0.036183 -0.83611
-0.16348 0.51217 0.21374 0.65193 -0.026698 -0.75781
0.143 0.49061 0.23514 -0.56065 0.0029584 -0.82805
-0.16413 0.49152 0.21373 0.65844 -0.0061253 -0.75261
0.14411 0.46843 0.23387 -0.57178 0.038115 -0.81952
-0.16443 0.47068 0.21331 0.66406 0.016343 -0.7475
0.14486 0.44458 0.23153 -0.58129 0.08893 -0.80882
-0.16382 0.44841 0.21292 0.66652 0.053171 -0.74359
0.1455 0.41945 0.22731 -0.59151 0.15403 -0.79145
-0.16177 0.42375 0.21238 0.66496 0.11383 -0.73815
0.1189 0.39755 0.24028 -0.50554 0.18996 -0.84163
-0.12704 0.399 0.23451 0.54228 0.17245 -0.82231
0.11996 0.37586 0.23448 -0.51616 0.22091 -0.82752
-0.1467 0.37309 0.21294 0.62338 0.24113 -0.74381
0.12154 0.35267 0.22684 -0.53089 0.26791 -0.80397
-0.099941 0.3499 0.23701 0.45349 0.28569 -0.84423
-0.13377 0.34716 0.21434 0.58578 0.28386 -0.75913
0.092094 0.32855 0.23488 -0.41106 0.33222 -0.84892
-0.073285 0.32841 0.24126 0.33775 0.35322 -0.87245
-0.10511 0.3255 0.22512 0.46609 0.34472 -0.81482
0.093921 0.30094 0.22147 -0.42504 0.42983 -0.79661
0.06564 0.30536 0.23579 -0.28751 0.41583 -0.8628
0.034127 0.30156 0.24133 -0.14271 0.42475 -0.89399
-0.0031803 0.30244 0.24402 0.022843 0.41602 -0.90907
-0.042761 0.30537 0.24062 0.1982 0.41305 -0.88888
-0.078776 0.30271 0.22792 0.36135 0.41127 -0.83683
0.016411 0.27647 0.2308 -0.074787 0.48743 -0.86995
-0.021886 0.27701 0.23023 0.10687 0.49 -0.86515
-0.05437 0.28143 0.22586 0.2574 0.47952 -0.83893
0.078644 -0.24127 0.19459 -0.26914 -0.89062 -0.36655
0.048387 -0.23572 0.19808 -0.17264 -0.88977 -0.4225
0.060136 -0.22865 0.1751 -0.26234 -0.88744 -0.37899
0.014271 -0.23592 0.20682 -0.050054 -0.87646 -0.47886
0.034289 -0.22754 0.18567 -0.15595 -0.87756 -0.45339
-0.018389 -0.23678 0.20745 0.073638 -0.87253 -0.48298
-0.0015861 -0.22735 0.19076 0.0053907 -0.8644 -0.50278
-0.047317 -0.23975 0.20533 0.16788 -0.87134 -0.46106
-0.043027 -0.23041 0.18747 0.19043 -0.85379 -0.48454
-0.06934 -0.24383 0.20354 0.25877 -0.85749 -0.44468
0.13717 -0.2664 0.19287 -0.48629 -0.80613 -0.33715
0.13716 -0.25634 0.15952 -0.50391 -0.84342 -0.18633
-0.12042 -0.26398 0.20064 0.43877 -0.80512 -0.39908
-0.1182 -0.25141 0.17258 0.46669 -0.83178 -0.30059
0.24762 -0.37995 0.18568 -0.85516 -0.44958 -0.25803
-0.23944 -0.36995 0.18209 0.8221 -0.50882 -0.25544
-0.25042 -0.37667 0.14252 0.87716 -0.47451 -0.073709
-0.25758 -0.39978 0.17161 0.89698 -0.39748 -0.19347
0.26927 -0.43378 0.18452 -0.94317 -0.24503 -0.22446
-0.26147 -0.42135 0.19046 0.90613 -0.32428 -0.2716
0.27527 -0.45831 0.1787 -0.96491 -0.18283 -0.18849
-0.27009 -0.44856 0.18776 0.93719 -0.25022 -0.24302
-0.27903 -0.45559 0.1433 0.96627 -0.2526 -0.050146
0.27957 -0.479 0.17713 -0.96186 -0.19225 -0.19457
-0.28679 -0.50671 0.16911 0.98066 -0.11376 -0.15924
0.28514 -0.52703 0.18523 -0.97057 -0.056857 -0.234
-0.287 -0.52748 0.17595 0.9817 -0.050211 -0.18369
0.28672 -0.55602 0.1778 -0.98052 0.0506 -0.18981
-0.28742 -0.55015 0.177 0.98499 0.0015478 -0.17261
0.28595 -0.58281 0.16488 -0.9845 0.13512 -0.11179
-0.28627 -0.5751 0.17816 0.98251 0.075864 -0.17005
0.27992 -0.60316 0.18466 -0.97279 0.14672 -0.17932
-0.28287 -0.60284 0.17784 0.97078 0.17967 -0.15907
0.27838 -0.62316 0.17052 -0.9788 0.18072 -0.096402
-0.27803 -0.6233 0.17907 0.96082 0.2338 -0.14886
0.27428 -0.64674 0.16347 -0.96953 0.23784 -0.058629
-0.27313 -0.64686 0.16411 0.95904 0.2765 -0.061533
0.26723 -0.67243 0.15514 -0.95228 0.30454 -0.020288
-0.26483 -0.67328 0.16644 0.94396 0.32743 -0.041551
0.26002 -0.69136 0.17422 -0.94711 0.31218 -0.074382
-0.25429 -0.69949 0.17429 0.91342 0.40383 -0.050819
0.24954 -0.71605 0.1435 -0.93105 0.32911 0.15758
-0.24142 -0.72489 0.15587 0.87915 0.47286 0.059099
0.24111 -0.72845 0.1261 -0.89578 0.24374 0.3717
-0.22589 -0.74716 0.13931 0.84028 0.5087 0.18748
0.2189 -0.75126 0.10143 -0.74935 0.28611 0.59718
-0.20911 -0.76626 0.12482 0.78173 0.54689 0.29968
0.21093 -0.75712 0.094538 -0.64312 0.15376 0.75017
0.17266 -0.78554 0.079089 -0.44661 0.43452 0.78213
-0.18771 -0.78367 0.10938 0.67852 0.52729 0.51145
0.18899 -0.7827 0.085229 -0.46321 0.25447 0.84893
0.14524 -0.80439 0.07748 -0.18488 0.45068 0.87333
0.11143 -0.8324 0.096463 -0.06447 0.76866 0.6364
0.092341 -0.84943 0.12414 -0.10394 0.94607 0.30685
0.075973 -0.85524 0.14179 -0.09775 0.98164 0.16377
0.065958 -0.85843 0.15469 -0.17101 0.98356 0.057953
-0.078707 -0.85452 0.14193 0.2147 0.96461 0.15308
-0.084339 -0.85195 0.13657 0.09914 0.95445 0.28142
-0.12048 -0.82805 0.10246 0.22612 0.74577 0.62666
-0.1748 -0.78732 0.09877 0.54397 0.38419 0.74599
0.15324 -0.8157 0.084945 -0.16431 0.4232 0.89101
0.11013 -0.83148 0.09318 0.10162 0.61977 0.77818
0.050608 -0.86178 0.15801 -0.19476 0.98035 0.031367
0.026327 -0.86624 0.15225 -0.13608 0.98792 0.074151
-0.0076689 -0.86809 0.15145 0.027819 0.99567 0.088736
-0.035521 -0.86614 0.16274 0.16146 0.9867 0.018662
-0.057429 -0.86075 0.15279 0.215 0.97393 0.072292
0.044048 0.78684 0.20379 -0.16764 -0.40852 -0.89722
0.0083941 0.78941 0.20662 -0.027571 -0.40278 -0.91488
-0.023702 0.79194 0.20428 0.10142 -0.42227 -0.90078
-0.051783 0.78875 0.20084 0.21653 -0.42338 -0.8797
0.075084 0.76741 0.2047 -0.27775 -0.39774 -0.87445
0.04315 0.76399 0.21398 -0.14748 -0.37521 -0.91513
0.018415 0.76731 0.21535 -0.059211 -0.36489 -0.92917
-0.010169 0.76822 0.21528 0.03943 -0.36347 -0.93077
-0.041609 0.7684 0.21202 0.16296 -0.3732 -0.91332
-0.074285 0.76917 0.203 0.3045 -0.38196 -0.87258
0.10917 0.75207 0.19807 -0.41509 -0.38194 -0.82573
0.082473 0.7442 0.2129 -0.29373 -0.36004 -0.88549
0.053424 0.74595 0.21945 -0.16753 -0.35026 -0.92155
0.0249 0.74593 0.22258 -0.065687 -0.33335 -0.94051
-0.00040291 0.74656 0.22327 0.0037391 -0.32916 -0.94427
-0.029075 0.74684 0.22177 0.099242 -0.33736 -0.93613
-0.066667 0.74605 0.21512 0.25367 -0.36049 -0.89761
-0.10203 0.74941 0.20001 0.40535 -0.36299 -0.83901
0.13282 0.73333 0.1929 -0.51006 -0.33316 -0.79299
0.10548 0.7262 0.21087 -0.39002 -0.31629 -0.86478
-0.10314 0.72709 0.20945 0.40936 -0.33104 -0.8502
-0.13302 0.72724 0.19158 0.52683 -0.32019 -0.78736
-0.13302 0.70447 0.20036 0.525 -0.27935 -0.80395
0.16087 0.68832 0.19023 -0.60319 -0.25969 -0.75413
0.14008 0.68004 0.20809 -0.51523 -0.24543 -0.82116
0.11028 0.68243 0.22277 -0.39474 -0.26468 -0.87985
-0.13147 0.68164 0.20896 0.50988 -0.2352 -0.82747
-0.16056 0.68165 0.18732 0.6217 -0.2322 -0.74804
-0.16015 0.66063 0.19383 0.61551 -0.20899 -0.75991
0.14308 0.64182 0.21469 -0.54403 -0.14679 -0.82613
-0.15883 0.6408 0.20038 0.60378 -0.1976 -0.77227
0.13769 0.62107 0.22138 -0.53376 -0.14713 -0.83274
-0.1582 0.61915 0.20619 0.59912 -0.16703 -0.78304
-0.18613 0.61785 0.1813 0.70943 -0.15507 -0.68751
0.14637 0.59984 0.21973 -0.558 -0.18601 -0.80873
-0.18578 0.59477 0.1863 0.7097 -0.10914 -0.69599
0.18575 0.58137 0.19161 -0.69425 -0.15059 -0.7038
-0.18658 0.57231 0.18856 0.71773 -0.070422 -0.69275
0.16151 0.56147 0.21672 -0.61486 -0.11834 -0.77971
-0.18765 0.55077 0.18888 0.72839 -0.040887 -0.68394
0.16706 0.53548 0.21545 -0.63608 -0.067274 -0.76869
-0.18875 0.53074 0.18853 0.73943 -0.026509 -0.67271
0.17019 0.51145 0.21417 -0.65424 -0.018783 -0.75605
-0.18948 0.51067 0.18829 0.74666 -0.01171 -0.6651
0.17152 0.48891 0.21291 -0.66685 0.018484 -0.74496
-0.18999 0.4903 0.18788 0.75261 0.0060876 -0.65843
0.17336 0.46586 0.21016 -0.68714 0.056696 -0.72431
-0.18995 0.46953 0.18726 0.75745 0.02785 -0.6523
0.17065 0.44125 0.21027 -0.67068 0.11057 -0.73346
-0.18932 0.44686 0.1867 0.75972 0.06864 -0.64661
0.17281 0.416 0.20295 -0.69759 0.18246 -0.69287
-0.18659 0.42269 0.18624 0.7565 0.12446 -0.64205
0.14765 0.3962 0.22031 -0.61268 0.20242 -0.76397
-0.15588 0.39851 0.21234 0.65068 0.17957 -0.73781
0.14987 0.37505 0.21229 -0.63315 0.22803 -0.73968
-0.17458 0.37339 0.18606 0.72832 0.24412 -0.64028
0.15068 0.35167 0.20371 -0.64333 0.27336 -0.71512
-0.16443 0.35028 0.18723 0.70169 0.28304 -0.65385
0.12337 0.32686 0.21563 -0.54617 0.3425 -0.76445
-0.13055 0.32006 0.20574 0.57559 0.3559 -0.73623
0.12439 0.30064 0.20117 -0.55489 0.42378 -0.71589
-0.1089 0.29817 0.20925 0.48613 0.42934 -0.76114
0.097525 0.27861 0.20572 -0.43952 0.50173 -0.74504
0.060899 0.27579 0.22059 -0.28312 0.49854 -0.81933
-0.08145 0.27446 0.21068 0.37895 0.49984 -0.77881
-0.11448 0.27197 0.18911 0.52091 0.49026 -0.69878
0.058068 0.24798 0.20386 -0.28819 0.57063 -0.76898
0.031252 0.25488 0.21555 -0.1405 0.55272 -0.82144
-0.0016122 0.24928 0.21396 0.022512 0.58248 -0.81253
-0.043747 0.25165 0.20924 0.21337 0.57555 -0.78944
0.10816 -0.24223 0.164 -0.40803 -0.8812 -0.23874
0.079793 -0.23302 0.17051 -0.31273 -0.89795 -0.30967
0.081356 -0.23186 0.16312 -0.37917 -0.8367 -0.39518
-0.073847 -0.23568 0.18203 0.28708 -0.88064 -0.37691
-0.073824 -0.23296 0.17466 0.32826 -0.82043 -0.46813
-0.096655 -0.24203 0.17677 0.37769 -0.85998 -0.34319
0.16583 -0.27525 0.15742 -0.60101 -0.78241 -0.16316
0.19157 -0.29738 0.15807 -0.68037 -0.71481 -0.1617
-0.14947 -0.27061 0.17054 0.56929 -0.78249 -0.25225
0.21467 -0.32216 0.1603 -0.7481 -0.64333 -0.16271
-0.17942 -0.29263 0.16169 0.66014 -0.72542 -0.19487
0.2344 -0.34944 0.1667 -0.81481 -0.55266 -0.17506
-0.20436 -0.31606 0.15761 0.72542 -0.66874 -0.16295
-0.22743 -0.34279 0.15295 0.79353 -0.59405 -0.13197
0.26416 -0.40527 0.16095 -0.92945 -0.34939 -0.11856
0.2533 -0.37659 0.14529 -0.89161 -0.44738 -0.069882
-0.26566 -0.40947 0.14193 0.93585 -0.34818 -0.054455
0.27384 -0.43389 0.15002 -0.96863 -0.24009 -0.064054
-0.27055 -0.43003 0.15931 0.95087 -0.28405 -0.12315
0.27894 -0.4571 0.14498 -0.97939 -0.19674 -0.045762
0.28645 -0.49834 0.15851 -0.98204 -0.15999 -0.099994
0.28318 -0.47609 0.13426 -0.98185 -0.18944 0.009459
-0.28599 -0.48267 0.13628 0.98412 -0.17732 -0.0081927
-0.2889 -0.5049 0.13954 0.99459 -0.10357 -0.0084962
0.29073 -0.52564 0.1462 -0.99767 -0.061509 -0.029599
-0.29034 -0.53019 0.14044 0.99974 -0.022831 -0.0022198
0.29073 -0.55612 0.13642 -0.99767 0.061511 0.0296
-0.29034 -0.55131 0.14345 0.99974 0.020248 -0.010486
0.28645 -0.58342 0.12411 -0.98204 0.16 0.099991
-0.28893 -0.57666 0.14375 0.99482 0.10164 0.0018889
0.28318 -0.60566 0.14836 -0.98185 0.18943 -0.0094594
-0.28595 -0.59935 0.14671 0.98367 0.17994 0.0045512
0.27894 -0.62467 0.13765 -0.97938 0.19678 0.045724
-0.27877 -0.62673 0.13954 0.96417 0.26054 0.049956
0.27389 -0.64766 0.13254 -0.9691 0.23803 0.064679
-0.26967 -0.65254 0.12232 0.94242 0.30706 0.13252
0.26444 -0.67571 0.12129 -0.93198 0.34087 0.12341
-0.26469 -0.67192 0.13617 0.93062 0.35433 0.091615
0.25613 -0.7003 0.13569 -0.91404 0.39301 0.10032
-0.25164 -0.70049 0.13384 0.89101 0.43584 0.12704
0.23723 -0.72768 0.11049 -0.83531 0.49098 0.24738
-0.23202 -0.73083 0.12057 0.82738 0.51899 0.21468
0.22081 -0.74773 0.10188 -0.78458 0.4592 0.41662
-0.21203 -0.75489 0.11057 0.76388 0.5732 0.29651
0.18623 -0.77781 0.083539 -0.61081 0.54177 0.5774
-0.18873 -0.77772 0.10127 0.68009 0.62237 0.38747
0.14916 -0.80882 0.083309 -0.42845 0.69856 0.5731
-0.15241 -0.80619 0.094319 0.52372 0.72643 0.44499
0.11351 -0.83316 0.095665 -0.27036 0.85291 0.44659
0.088193 -0.8462 0.1105 -0.20533 0.93125 0.30101
0.06891 -0.8526 0.11985 -0.18734 0.95601 0.22571
-0.066895 -0.85094 0.1119 0.22505 0.93513 0.27367
-0.088097 -0.84555 0.11307 0.28461 0.91513 0.28556
-0.10673 -0.83715 0.10831 0.30943 0.87814 0.36486
0.055514 -0.85709 0.12726 -0.19447 0.96207 0.19131
0.033813 -0.85919 0.11843 -0.13923 0.95988 0.24341
0.0013917 -0.86059 0.11418 -0.0074566 0.96027 0.27897
-0.034987 -0.85921 0.11931 0.13925 0.95747 0.2527
0.017195 0.83519 0.18182 -0.066987 -0.51363 -0.85539
-0.016935 0.83297 0.18326 0.073786 -0.49891 -0.86351
0.082034 0.8146 0.17884 -0.31419 -0.4521 -0.8348
0.051401 0.81474 0.18833 -0.20399 -0.46936 -0.85912
0.024637 0.80964 0.19622 -0.099156 -0.45916 -0.8828
-0.0066217 0.8143 0.19467 0.042417 -0.47115 -0.88103
-0.04655 0.81431 0.18859 0.20398 -0.46645 -0.86071
-0.081157 0.81001 0.17976 0.33959 -0.45432 -0.82357
0.11071 0.79402 0.1768 -0.42899 -0.41426 -0.80272
0.0793 0.79234 0.19199 -0.30485 -0.42456 -0.85254
-0.077358 0.79276 0.19092 0.32567 -0.43402 -0.83998
-0.1064 0.7923 0.17724 0.4384 -0.42217 -0.79346
0.13435 0.77701 0.17125 -0.51987 -0.3858 -0.76216
0.10921 0.7724 0.18848 -0.41937 -0.39049 -0.81954
-0.1042 0.77118 0.18927 0.42141 -0.39152 -0.818
-0.13266 0.77191 0.17164 0.52585 -0.39224 -0.75474
-0.1321 0.74868 0.18362 0.52003 -0.34513 -0.78132
-0.15962 0.74806 0.16265 0.62027 -0.32939 -0.71188
0.15939 0.72898 0.17501 -0.6043 -0.32047 -0.72947
-0.16144 0.72563 0.17049 0.6302 -0.29441 -0.71845
0.13593 0.70696 0.20079 -0.50668 -0.29787 -0.80904
-0.16097 0.70447 0.17963 0.62551 -0.27403 -0.73051
0.18453 0.68068 0.17143 -0.69396 -0.21164 -0.6882
-0.18639 0.68221 0.16317 0.713 -0.23195 -0.66169
0.16238 0.661 0.19681 -0.61707 -0.17389 -0.76746
-0.18676 0.659 0.16989 0.71248 -0.18642 -0.67647
0.16884 0.6347 0.196 -0.64861 -0.11641 -0.75216
-0.18776 0.6395 0.17431 0.71831 -0.18456 -0.67079
0.17179 0.61685 0.19608 -0.65345 -0.14028 -0.74386
-0.20983 0.61542 0.15387 0.80131 -0.13692 -0.58237
0.17848 0.60167 0.1936 -0.66756 -0.17576 -0.72351
-0.20903 0.59204 0.15961 0.80206 -0.083917 -0.59131
0.20951 0.57794 0.16571 -0.77641 -0.12424 -0.61786
-0.20962 0.56969 0.16075 0.81038 -0.044219 -0.58423
0.19077 0.55744 0.19105 -0.71513 -0.10071 -0.6917
-0.21031 0.54891 0.16085 0.8173 -0.022288 -0.57578
0.19463 0.5324 0.18943 -0.73757 -0.041677 -0.67398
-0.2108 0.52931 0.1607 0.82214 -0.01222 -0.56915
0.19666 0.50917 0.18777 -0.75296 0.0024738 -0.65806
-0.21114 0.50955 0.16047 0.82559 -0.00051559 -0.56426
0.1978 0.48628 0.18574 -0.76414 0.039513 -0.64383
-0.21115 0.4894 0.16015 0.82824 0.015094 -0.56017
0.20006 0.46104 0.18038 -0.78658 0.075449 -0.61287
-0.21083 0.46798 0.15958 0.83105 0.043308 -0.55451
0.19064 0.43633 0.18841 -0.75465 0.12613 -0.64389
-0.21021 0.44555 0.15838 0.83611 0.081749 -0.54244
0.19515 0.41497 0.17648 -0.77938 0.19899 -0.59411
0.17612 0.39514 0.19299 -0.72294 0.21198 -0.65759
-0.18109 0.39757 0.18613 0.74373 0.18974 -0.64098
0.17615 0.37535 0.18665 -0.7267 0.21809 -0.65142
-0.19562 0.37307 0.15804 0.80464 0.24885 -0.5391
0.17564 0.34929 0.17727 -0.72949 0.28562 -0.6215
0.15124 0.32497 0.19143 -0.65113 0.35019 -0.67335
-0.15463 0.32598 0.1865 0.67618 0.33299 -0.65719
0.14983 0.29876 0.1773 -0.64708 0.42279 -0.63446
-0.13909 0.29821 0.18625 0.61724 0.42424 -0.6626
0.12271 0.27375 0.18465 -0.54743 0.50978 -0.66366
-0.14651 0.27553 0.16151 0.66075 0.4846 -0.57321
0.091543 0.25435 0.19125 -0.43811 0.55426 -0.70771
-0.079808 0.2476 0.19257 0.36741 0.57941 -0.72753
-0.10544 0.2449 0.17474 0.48393 0.58891 -0.6473
0.06946 0.2315 0.18506 -0.34388 0.62612 -0.6998
0.031384 0.22815 0.19497 -0.14445 0.64483 -0.75055
-0.011607 0.22495 0.19424 0.066562 0.64143 -0.76429
-0.05225 0.22468 0.18482 0.26564 0.63801 -0.72276
-0.0084003 0.17597 0.19129 0.016963 -0.26625 -0.96375
0.043457 0.15617 0.19213 -0.16177 -0.21544 -0.96302
0.011116 0.15755 0.19593 -0.064 -0.21989 -0.97342
-0.01711 0.15472 0.19729 0.047869 -0.2222 -0.97383
-0.043285 0.16263 0.19214 0.15248 -0.24371 -0.95779
-0.070895 0.15683 0.18755 0.23498 -0.23525 -0.9431
0.064729 0.13485 0.19226 -0.22694 -0.16604 -0.95965
0.038488 0.12822 0.1987 -0.13855 -0.1401 -0.9804
0.016807 0.13156 0.20038 -0.072174 -0.14066 -0.98742
-0.0093665 0.13088 0.20138 0.0077048 -0.13007 -0.99148
-0.039008 0.13456 0.19879 0.12563 -0.16199 -0.97876
-0.067036 0.13761 0.19318 0.22467 -0.19124 -0.95548
0.0434 0.10713 0.20014 -0.14278 -0.081866 -0.98636
0.017182 0.10517 0.20268 -0.060765 -0.057364 -0.9965
-0.0056527 0.10571 0.20358 -0.010943 -0.055944 -0.99837
-0.032639 0.10844 0.20268 0.075763 -0.080716 -0.99385
-0.063106 0.11297 0.19821 0.19551 -0.12533 -0.97266
-0.089238 0.11529 0.1907 0.27269 -0.14816 -0.95063
0.088587 0.091631 0.19239 -0.27103 -0.11679 -0.95546
0.060265 0.085769 0.19966 -0.15646 -0.089886 -0.98359
0.040078 0.086837 0.20184 -0.09815 -0.063841 -0.99312
0.016846 0.08432 0.20352 -0.046086 -0.028681 -0.99853
-0.0047432 0.083237 0.20411 -0.013798 -0.014303 -0.9998
-0.028927 0.08442 0.20392 0.04317 -0.025103 -0.99875
-0.057334 0.087933 0.20122 0.14133 -0.060232 -0.98813
-0.087664 0.092471 0.19466 0.26005 -0.10281 -0.96011
0.063366 0.067343 0.20037 -0.15413 -0.057941 -0.98635
0.036509 0.065335 0.20304 -0.063157 -0.030779 -0.99753
0.015137 0.064592 0.20394 -0.026982 -0.015526 -0.99952
-0.0053226 0.063613 0.20413 -0.0069645 -0.0029352 -0.99997
-0.027002 0.063706 0.2041 0.023916 -0.0038696 -0.99971
-0.053526 0.065841 0.20262 0.10325 -0.025217 -0.99434
-0.085537 0.069608 0.1973 0.23701 -0.060376 -0.96963
-0.11438 0.070299 0.18792 0.34212 -0.054115 -0.9381
0.11777 0.051939 0.18728 -0.38219 -0.079343 -0.92067
0.083484 0.047052 0.19868 -0.20434 -0.072626 -0.9762
0.059449 0.049007 0.2018 -0.1068 -0.057984 -0.99259
0.035431 0.046425 0.20354 -0.046027 -0.021539 -0.99871
0.013991 0.045266 0.20412 -0.015228 -0.0064125 -0.99986
-0.0058846 0.044862 0.20413 -0.0013438 -0.0013395 -1
-0.026385 0.044805 0.20412 0.017751 -0.00077061 -0.99984
-0.051267 0.045879 0.20311 0.080656 -0.01151 -0.99668
-0.082735 0.048159 0.19876 0.2087 -0.033566 -0.9774
-0.11692 0.051097 0.18839 0.36058 -0.05523 -0.93109
0.090003 0.027934 0.19796 -0.2371 -0.026372 -0.97113
0.057142 0.027304 0.20288 -0.084318 -0.021548 -0.99621
0.033762 0.027373 0.20394 -0.027326 -0.015156 -0.99951
0.013267 0.026431 0.20413 -0.0069646 -0.0029347 -0.99997
-0.006019 0.026138 0.20413 0 0 -1
-0.026 0.026369 0.20412 0.0139 -0.0023118 -0.9999
-0.04974 0.027215 0.20331 0.065391 -0.010768 -0.9978
-0.080432 0.028904 0.19985 0.1864 -0.02766 -0.98208
-0.11482 0.030974 0.19027 0.34286 -0.04689 -0.93821
0.092431 0.0084698 0.19761 -0.24608 -0.0095284 -0.9692
0.058441 0.007929 0.20303 -0.090674 -0.0058902 -0.99586
0.033005 0.0079148 0.20411 -0.019464 -0.0047078 -0.9998
0.012705 0.007681 0.20413 -0.0013438 -0.0013396 -1
-0.006019 0.007547 0.20413 0 0 -1
-0.025306 0.0077782 0.20413 0.0069647 -0.0023124 -0.99997
-0.048513 0.0089317 0.20364 0.053119 -0.013847 -0.99849
-0.078347 0.010727 0.20072 0.16555 -0.031795 -0.98569
-0.11267 0.013031 0.19182 0.32285 -0.05484 -0.94486
0.092693 -0.010456 0.19768 -0.24349 -0.0058753 -0.96989
0.058966 -0.010912 0.20302 -0.092132 -0.0013224 -0.99575
0.033023 -0.011028 0.20412 -0.018614 -0.00016219 -0.99983
0.012571 -0.011044 0.20413 0 0 -1
-0.006019 -0.011044 0.20413 0 0 -1
-0.024766 -0.010966 0.20413 0.0015599 -0.00077998 -1
-0.046978 -0.0099636 0.20397 0.037765 -0.010804 -0.99923
-0.075707 -0.0078474 0.20165 0.13915 -0.031966 -0.98975
-0.11044 -0.0050701 0.19381 0.30056 -0.059739 -0.95189
0.091213 -0.028645 0.19805 -0.22795 -0.010626 -0.97361
0.058929 -0.029624 0.20302 -0.091761 -9.6638e-005 -0.99578
0.033014 -0.029634 0.20412 -0.018521 0 -0.99983
0.012571 -0.029634 0.20413 0 0 -1
-0.006019 -0.029634 0.20413 0 0 -1
-0.02461 -0.029634 0.20413 0 0 -1
-0.045593 -0.029247 0.2041 0.023916 -0.0038697 -0.99971
-0.073177 -0.02772 0.20252 0.11385 -0.019141 -0.99331
-0.10789 -0.024994 0.19595 0.27512 -0.046396 -0.96029
-0.14201 -0.022772 0.18243 0.43136 -0.066855 -0.8997
0.088997 -0.046971 0.19874 -0.20609 -0.015052 -0.97842
0.058568 -0.048046 0.20306 -0.088151 -0.0017874 -0.99611
0.033014 -0.048225 0.20412 -0.018521 0 -0.99983
0.012571 -0.048225 0.20413 0 0 -1
-0.006019 -0.048225 0.20413 0 0 -1
-0.02461 -0.048225 0.20413 0 0 -1
-0.045062 -0.048241 0.20412 0.018614 0.00016252 -0.99983
-0.071685 -0.047674 0.20295 0.098928 -0.0055057 -0.99508
-0.10575 -0.046893 0.19715 0.25367 -0.013322 -0.9672
-0.14063 -0.045864 0.18458 0.41868 -0.020807 -0.9079
0.087888 -0.066626 0.19923 -0.19677 -0.0046962 -0.98044
0.057917 -0.066575 0.20311 -0.081636 -0.002413 -0.99666
0.033014 -0.066816 0.20412 -0.018521 0 -0.99983
0.012571 -0.066816 0.20413 0 0 -1
-0.006019 -0.066816 0.20413 0 0 -1
-0.024744 -0.06695 0.20413 0.0013438 0.0013396 -1
-0.045043 -0.067184 0.20411 0.019463 0.0047078 -0.9998
-0.070481 -0.067198 0.20303 0.090676 0.0058893 -0.99586
-0.10476 -0.067433 0.19754 0.24898 0.0064729 -0.96849
-0.14102 -0.069048 0.18435 0.42643 0.023347 -0.90422
0.088757 -0.086525 0.19894 -0.20516 0.010154 -0.97867
0.057882 -0.085512 0.20311 -0.081292 0.0010527 -0.99669
0.033014 -0.085407 0.20412 -0.018521 0 -0.99983
0.012571 -0.085407 0.20413 0 0 -1
-0.006019 -0.085407 0.20413 0 0 -1
-0.0253 -0.085692 0.20413 0.0069006 0.0028508 -0.99997
-0.045788 -0.086585 0.20394 0.027205 0.014589 -0.99952
-0.069198 -0.086429 0.20288 0.08449 0.020105 -0.99622
-0.1023 -0.086828 0.19791 0.23965 0.022625 -0.9706
-0.14054 -0.090283 0.18385 0.43699 0.045516 -0.89831
0.09054 -0.10533 0.19827 -0.22196 0.013379 -0.97496
0.058475 -0.10424 0.20306 -0.087224 0.0024768 -0.99619
0.033014 -0.104 0.20412 -0.018521 0 -0.99983
0.012571 -0.104 0.20413 0 0 -1
-0.006019 -0.104 0.20413 0 0 -1
-0.026043 -0.10417 0.20412 0.014328 0.0017423 -0.9999
-0.047856 -0.1053 0.20355 0.046106 0.015515 -0.99882
-0.069311 -0.10587 0.20218 0.079334 0.032878 -0.99631
-0.096031 -0.10409 0.19879 0.20588 0.050286 -0.97728
0.091972 -0.12326 0.19786 -0.23628 0.0066938 -0.97166
0.058872 -0.12267 0.20303 -0.091191 0.00077265 -0.99583
0.033014 -0.12259 0.20412 -0.018521 0 -0.99983
0.012571 -0.12259 0.20413 0 0 -1
-0.006019 -0.12259 0.20413 0 0 -1
-0.026414 -0.12261 0.20412 0.018045 0.00023774 -0.99984
-0.049686 -0.12319 0.20326 0.06411 0.0067391 -0.99792
-0.077148 -0.12559 0.20055 0.14958 0.037835 -0.98802
-0.11487 -0.12596 0.1917 0.32152 0.069776 -0.94433
0.093127 -0.14192 0.19757 -0.24783 0.0073609 -0.96878
0.058948 -0.14118 0.20302 -0.091952 0 -0.99576
0.033014 -0.14118 0.20412 -0.018521 0 -0.99983
0.012571 -0.14118 0.20413 0 0 -1
-0.006019 -0.14118 0.20413 0 0 -1
-0.026471 -0.1412 0.20412 0.018614 0.00016219 -0.99983
-0.050523 -0.14152 0.20318 0.073221 0.0033916 -0.99731
-0.07912 -0.14263 0.19994 0.17284 0.017023 -0.9848
-0.1116 -0.14412 0.19185 0.30927 0.038308 -0.9502
0.094561 -0.16184 0.19691 -0.26217 0.02074 -0.9648
0.059627 -0.16046 0.20295 -0.098743 0.0068873 -0.99509
0.033014 -0.15977 0.20412 -0.018521 0 -0.99983
0.012571 -0.15977 0.20413 0 0 -1
-0.0061534 -0.1599 0.20413 0.0013438 0.0013395 -1
-0.026453 -0.16014 0.20411 0.019463 0.0047077 -0.9998
-0.050691 -0.16042 0.20313 0.078692 0.0086175 -0.99686
-0.079971 -0.16201 0.19945 0.18833 0.025472 -0.98178
-0.11048 -0.1635 0.19145 0.31399 0.046268 -0.9483
0.097027 -0.18309 0.1956 -0.28683 0.047347 -0.95681
0.061138 -0.18027 0.20252 -0.11385 0.01914 -0.99331
0.033554 -0.17875 0.2041 -0.023916 0.0038696 -0.99971
0.012571 -0.17836 0.20413 0 0 -1
-0.006709 -0.17865 0.20413 0.0069005 0.0028508 -0.99997
-0.027197 -0.17954 0.20394 0.027204 0.01459 -0.99952
-0.050214 -0.17956 0.20291 0.080556 0.021895 -0.99651
-0.080289 -0.18102 0.19886 0.20504 0.037552 -0.97803
-0.11225 -0.1863 0.18927 0.33965 0.089393 -0.9363
0.064112 -0.20083 0.20156 -0.14359 0.038786 -0.98888
0.034939 -0.19803 0.20397 -0.037765 0.010803 -0.99923
0.012727 -0.19703 0.20413 -0.0015599 0.00077993 -1
-0.0074609 -0.19714 0.20412 0.014419 0.0018812 -0.99989
-0.029286 -0.19833 0.20355 0.046325 0.016334 -0.99879
-0.053446 -0.2007 0.20184 0.10658 0.051691 -0.99296
-0.076391 -0.19874 0.19892 0.19451 0.068171 -0.97853
0.069159 -0.22312 0.19961 -0.19406 0.07578 -0.97806
0.037622 -0.21831 0.20354 -0.064598 0.027663 -0.99753
0.013132 -0.21591 0.20413 -0.0056112 0.0036757 -0.99998
-0.0078176 -0.21596 0.20411 0.019016 0.005262 -0.99981
-0.030783 -0.21672 0.20325 0.064781 0.014601 -0.99779
-0.058471 -0.21866 0.20046 0.15491 0.039993 -0.98712
-0.091876 -0.22113 0.19275 0.28213 0.093231 -0.95484
0.075741 -0.24671 0.19566 -0.25988 0.12574 -0.95742
0.042525 -0.23951 0.20213 -0.11363 0.053786 -0.99207
0.014966 -0.23483 0.2041 -0.022914 0.0080316 -0.99971
-0.0082364 -0.23399 0.20395 0.027044 0.0034733 -0.99963
-0.030449 -0.23465 0.20298 0.073093 0.016129 -0.99719
-0.058119 -0.23743 0.19976 0.17441 0.043592 -0.98371
-0.089466 -0.24233 0.19168 0.3006 0.090109 -0.94948
0.051956 -0.25914 0.19938 -0.20105 0.064168 -0.97748
0.019841 -0.25104 0.2038 -0.065474 -0.014729 -0.99775
-0.0078941 -0.24773 0.204 0.031391 -0.039048 -0.99874
-0.032208 -0.25041 0.20252 0.099837 -0.0013753 -0.995
-0.053535 -0.25181 0.19999 0.17081 0.041805 -0.98442
0.03121 -0.25746 0.20241 -0.15683 -0.13209 -0.97875
-0.0053468 -0.2531 0.20421 0.013128 -0.16743 -0.9858
-0.031685 -0.25317 0.20262 0.12097 -0.12761 -0.98442
0.057268 -0.22685 0.17272 -0.2871 -0.84001 -0.4604
0.030816 -0.22843 0.18595 -0.18147 -0.74838 -0.63796
-0.019323 -0.22904 0.19077 0.079822 -0.7332 -0.67531
0.006392 -0.24105 0.19962 -0.05164 -0.46503 -0.88379
-0.060249 -0.23331 0.18308 0.30626 -0.72205 -0.62036
-0.048915 -0.24623 0.19646 0.2362 -0.41259 -0.87976
0.13914 -0.25321 0.13229 -0.54991 -0.82735 -0.11444
0.1105 -0.23992 0.14764 -0.47294 -0.83433 -0.28324
-0.10338 -0.23989 0.16132 0.44158 -0.832 -0.33584
0.16546 -0.27112 0.12445 -0.61496 -0.78815 -0.025248
-0.13614 -0.25487 0.14631 0.56177 -0.79966 -0.21201
0.1915 -0.29361 0.12367 -0.68826 -0.72545 -0.0040909
-0.16297 -0.27319 0.13587 0.64354 -0.75662 -0.11568
0.21584 -0.31919 0.12628 -0.76321 -0.6461 -0.0080373
-0.187 -0.29444 0.12695 0.70325 -0.70989 -0.038732
0.23649 -0.3468 0.13268 -0.83161 -0.55487 -0.023516
-0.20921 -0.31746 0.12219 0.74793 -0.66378 0.00061626
-0.23177 -0.345 0.11711 0.81069 -0.58491 0.025855
0.26618 -0.40666 0.12699 -0.94355 -0.33 0.028345
0.25353 -0.37795 0.10947 -0.89904 -0.42843 0.090366
-0.25077 -0.37642 0.10532 0.88382 -0.46123 0.078283
-0.26462 -0.40752 0.11374 0.93987 -0.33547 0.06399
0.27414 -0.43443 0.11895 -0.96822 -0.24276 0.060062
-0.27341 -0.43554 0.1173 0.96073 -0.26781 0.07264
0.2784 -0.45853 0.11242 -0.97899 -0.18134 0.093247
-0.27807 -0.45879 0.1033 0.96123 -0.23048 0.15141
0.28596 -0.4989 0.11795 -0.98466 -0.13562 0.10974
0.2801 -0.47851 0.098992 -0.9745 -0.14753 0.16909
-0.28288 -0.47906 0.10469 0.97089 -0.17828 0.15996
-0.28622 -0.50651 0.10437 0.98233 -0.078387 0.16995
0.28674 -0.52587 0.10492 -0.98076 -0.049364 0.18889
-0.28762 -0.53081 0.10618 0.98593 -0.01158 0.16678
0.28514 -0.55472 0.097392 -0.97057 0.056834 0.23402
-0.28767 -0.55379 0.10882 0.98535 0.044257 0.16472
0.28063 -0.57876 0.090451 -0.95047 0.15021 0.27213
-0.28734 -0.57507 0.11599 0.98406 0.11394 0.13652
0.27957 -0.60276 0.10549 -0.96187 0.19225 0.19457
-0.28082 -0.60473 0.11014 0.95988 0.21587 0.17897
0.27527 -0.62345 0.10393 -0.9649 0.18283 0.1885
-0.26975 -0.63457 0.095935 0.93031 0.27191 0.24614
0.26928 -0.64794 0.098073 -0.9432 0.24466 0.22475
-0.26269 -0.65661 0.09532 0.903 0.33526 0.26868
0.25889 -0.67252 0.089137 -0.89501 0.34523 0.28244
-0.25503 -0.67825 0.10092 0.8818 0.39779 0.25335
0.24782 -0.70096 0.09594 -0.85675 0.43917 0.27039
-0.23842 -0.70796 0.094992 0.83001 0.47437 0.29336
0.22824 -0.72529 0.081383 -0.7752 0.51706 0.36293
-0.21755 -0.73557 0.088408 0.75687 0.55487 0.34535
0.21104 -0.74811 0.081695 -0.7126 0.5785 0.3969
-0.19489 -0.75953 0.082292 0.68313 0.61118 0.39973
0.18791 -0.76975 0.075961 -0.63903 0.60746 0.47185
-0.16969 -0.78154 0.077132 0.60288 0.66428 0.44189
0.15999 -0.79253 0.072257 -0.53329 0.67217 0.5136
0.12889 -0.81418 0.073465 -0.40373 0.76773 0.49759
-0.11878 -0.81723 0.077377 0.4027 0.79539 0.45298
-0.14324 -0.79839 0.070229 0.49771 0.72384 0.47784
0.10041 -0.8301 0.079985 -0.30359 0.84844 0.43357
0.072826 -0.84176 0.087557 -0.20879 0.90573 0.36886
0.046932 -0.8481 0.090865 -0.15163 0.92054 0.36001
0.015305 -0.84815 0.082275 -0.05616 0.90865 0.41376
-0.016703 -0.84773 0.081477 0.063074 0.90529 0.42008
-0.045 -0.84446 0.082091 0.14914 0.89759 0.41484
-0.067637 -0.83993 0.082184 0.24136 0.87676 0.41597
-0.089353 -0.83325 0.084109 0.31285 0.85179 0.42022
0.078418 0.8571 0.15455 -0.31197 -0.52897 -0.78922
0.047218 0.86237 0.16071 -0.19172 -0.52743 -0.82769
0.02111 0.85792 0.16769 -0.077693 -0.52118 -0.8499
-0.014391 0.85573 0.1697 0.060907 -0.52827 -0.84689
-0.053216 0.85719 0.16197 0.2226 -0.52076 -0.82417
-0.083502 0.85073 0.15574 0.35236 -0.49059 -0.79697
0.11121 0.83783 0.15173 -0.43495 -0.49517 -0.75208
0.086926 0.8334 0.16654 -0.33318 -0.48877 -0.80629
0.054373 0.84021 0.17333 -0.20765 -0.50396 -0.8384
-0.040761 0.83967 0.17598 0.17975 -0.50078 -0.8467
-0.073758 0.83121 0.17098 0.31499 -0.47058 -0.82422
-0.10848 0.83169 0.1538 0.4592 -0.44961 -0.76615
0.13516 0.8186 0.14817 -0.53417 -0.43947 -0.72216
0.11173 0.81424 0.16607 -0.43309 -0.43691 -0.78838
-0.10663 0.81262 0.16619 0.44382 -0.44375 -0.77853
-0.13633 0.81219 0.14605 0.5609 -0.42598 -0.70988
-0.13465 0.7926 0.159 0.54343 -0.41673 -0.72871
0.16102 0.77094 0.15325 -0.6196 -0.36171 -0.69661
-0.1602 0.77172 0.14994 0.62719 -0.38841 -0.67511
0.14184 0.75461 0.17694 -0.54483 -0.36157 -0.75659
-0.178 0.75159 0.14333 0.68292 -0.33895 -0.64709
0.18686 0.72667 0.14994 -0.696 -0.3091 -0.64811
-0.18831 0.72433 0.14433 0.72529 -0.2534 -0.64011
0.17226 0.70716 0.17364 -0.63804 -0.29383 -0.71174
-0.18889 0.70357 0.1519 0.72999 -0.2599 -0.63212
0.20862 0.67687 0.14486 -0.78217 -0.18396 -0.59528
-0.20934 0.68064 0.13497 0.80035 -0.22348 -0.55633
0.19134 0.65489 0.17097 -0.72314 -0.14297 -0.67575
-0.2057 0.66125 0.14715 0.78376 -0.17741 -0.59518
0.19531 0.63263 0.17055 -0.73721 -0.11261 -0.66622
-0.21659 0.63543 0.13809 0.83005 -0.14654 -0.5381
0.19848 0.61643 0.16967 -0.74048 -0.13951 -0.65744
0.20368 0.59958 0.16777 -0.7521 -0.15516 -0.64053
0.21461 0.55343 0.1632 -0.80416 -0.066749 -0.59066
0.21732 0.52963 0.16095 -0.82275 -0.015454 -0.5682
0.21832 0.50754 0.15928 -0.83187 0.018072 -0.55468
