-0.095782 0.66517 0.15104 0.50988 -0.2352 -0.82747
-0.11704 0.66539 0.13496 0.6217 -0.2322 -0.74804
-0.11706 0.646 0.14063 0.61551 -0.20899 -0.75991
0.105 0.63154 0.15687 -0.54403 -0.14679 -0.82613
-0.11657 0.62697 0.14632 0.60378 -0.1976 -0.77227
0.10033 0.61077 0.16309 -0.53376 -0.14713 -0.83274
-0.11626 0.60746 0.15138 0.59912 -0.16703 -0.78304
-0.13647 0.607 0.13318 0.70943 -0.15507 -0.68751
0.10731 0.58682 0.16312 -0.558 -0.18601 -0.80873
-0.1361 0.58713 0.13758 0.7097 -0.10914 -0.69599
0.13715 0.57083 0.14234 -0.69425 -0.15059 -0.7038
-0.13634 0.56738 0.14006 0.71773 -0.070422 -0.69275
0.11847 0.55319 0.16214 -0.61486 -0.11834 -0.77971
-0.13666 0.5479 0.141 0.72839 -0.040887 -0.68394
0.12253 0.53077 0.16164 -0.63608 -0.067274 -0.76869
-0.13699 0.52888 0.14144 0.73943 -0.026509 -0.67271
0.12439 0.51013 0.16124 -0.65424 -0.018783 -0.75605
-0.13721 0.50985 0.14173 0.74666 -0.01171 -0.6651
0.12484 0.4902 0.16076 -0.66685 0.018484 -0.74496
-0.1373 0.49072 0.14179 0.75261 0.0060876 -0.65843
0.12526 0.46983 0.15946 -0.68714 0.056696 -0.72431
-0.13693 0.47148 0.1416 0.75745 0.02785 -0.6523
0.1237 0.44899 0.15893 -0.67068 0.11057 -0.73346
-0.13614 0.45166 0.14143 0.75972 0.06864 -0.64661
0.12397 0.42877 0.15445 -0.69759 0.18246 -0.69287
-0.13363 0.4314 0.1413 0.7565 0.12446 -0.64205
0.10476 0.41037 0.16683 -0.61268 0.20242 -0.76397
-0.11033 0.41108 0.16069 0.65068 0.17957 -0.73781
0.10555 0.39101 0.16051 -0.63315 0.22803 -0.73968
-0.1236 0.39048 0.14124 0.72832 0.24412 -0.64028
0.10565 0.37081 0.15365 -0.64333 0.27336 -0.71512
-0.11531 0.37009 0.14146 0.70169 0.28304 -0.65385
0.085142 0.35084 0.16212 -0.54617 0.3425 -0.76445
-0.090262 0.34498 0.1542 0.57559 0.3559 -0.73623
0.085552 0.33031 0.15106 -0.55489 0.42378 -0.71589
-0.074868 0.32822 0.15597 0.48613 0.42934 -0.76114
0.066759 0.31373 0.15357 -0.43952 0.50173 -0.74504
0.041081 0.31068 0.16323 -0.28312 0.49854 -0.81933
-0.054924 0.30945 0.15616 0.37895 0.49984 -0.77881
-0.078012 0.30629 0.1402 0.52091 0.49026 -0.69878
0.037895 0.28792 0.15003 -0.28819 0.57063 -0.76898
0.021417 0.29357 0.15805 -0.1405 0.55272 -0.82144
-3.6365e-005 0.29005 0.15708 0.022512 0.58248 -0.81253
-0.028811 0.29194 0.15398 0.21337 0.57555 -0.78944
0.079598 -0.30391 0.14729 -0.40803 -0.8812 -0.23874
0.057902 -0.29587 0.14883 -0.31273 -0.89795 -0.30967
0.054814 -0.29043 0.13546 -0.37917 -0.8367 -0.39518
-0.053751 -0.29733 0.15565 0.28708 -0.88064 -0.37691
-0.050846 -0.29039 0.14189 0.32826 -0.82043 -0.46813
-0.070217 -0.30223 0.15274 0.37769 -0.85998 -0.34319
0.12376 -0.33002 0.146 -0.60101 -0.78241 -0.16316
0.14394 -0.34742 0.14675 -0.68037 -0.71481 -0.1617
-0.10962 -0.32539 0.15288 0.56929 -0.78249 -0.25225
0.1623 -0.36719 0.14891 -0.7481 -0.64333 -0.16271
-0.13321 -0.34341 0.14805 0.66014 -0.72542 -0.19487
0.17736 -0.38813 0.15444 -0.81481 -0.55266 -0.17506
-0.15358 -0.36287 0.1462 0.72542 -0.66874 -0.16295
-0.17189 -0.38438 0.14371 0.79353 -0.59405 -0.13197
0.1991 -0.42973 0.15265 -0.92945 -0.34939 -0.11856
0.19088 -0.40791 0.1404 -0.89161 -0.44738 -0.069882
-0.20015 -0.43384 0.13812 0.93585 -0.34818 -0.054455
0.20604 -0.4507 0.14554 -0.96863 -0.24009 -0.064054
-0.20399 -0.44991 0.15069 0.95087 -0.28405 -0.12315
0.21038 -0.47087 0.14178 -0.97939 -0.19674 -0.045762
0.21771 -0.50954 0.15151 -0.98204 -0.15999 -0.099994
0.21445 -0.48935 0.13493 -0.98185 -0.18944 0.009459
-0.2171 -0.49508 0.13571 0.98412 -0.17732 -0.0081927
-0.21928 -0.51215 0.13895 0.99459 -0.10357 -0.0084962
0.22089 -0.52994 0.14413 -0.99767 -0.061509 -0.029599
-0.22036 -0.53178 0.14029 0.99974 -0.022831 -0.0022198
0.22089 -0.55181 0.1385 -0.99767 0.061511 0.0296
-0.22036 -0.5499 0.14272 0.99974 0.020248 -0.010486
0.21771 -0.57222 0.13111 -0.98204 0.16 0.099991
-0.21929 -0.56955 0.14388 0.99482 0.10164 0.0018889
0.21445 -0.5924 0.1477 -0.98185 0.18943 -0.0094594
-0.21709 -0.58675 0.14703 0.98367 0.17994 0.0045512
0.21038 -0.61089 0.14085 -0.97938 0.19678 0.045724
-0.21128 -0.60849 0.14303 0.96417 0.26054 0.049956
0.20605 -0.631 0.13707 -0.9691 0.23803 0.064679
-0.2037 -0.63105 0.1316 0.94242 0.30706 0.13252
0.1992 -0.65185 0.12993 -0.93198 0.34087 0.12341
-0.19955 -0.64712 0.14258 0.93062 0.35433 0.091615
0.19214 -0.67279 0.14271 -0.91404 0.39301 0.10032
-0.18927 -0.66998 0.14274 0.89101 0.43584 0.12704
0.17876 -0.69331 0.1278 -0.83531 0.49098 0.24738
-0.1741 -0.6945 0.13559 0.82738 0.51899 0.21468
0.16589 -0.71558 0.13104 -0.78458 0.4592 0.41662
-0.15856 -0.71477 0.13133 0.76388 0.5732 0.29651
0.14347 -0.73989 0.12396 -0.61081 0.54177 0.5774
-0.14113 -0.73415 0.12839 0.68009 0.62237 0.38747
0.11917 -0.75992 0.12343 -0.42845 0.69856 0.5731
-0.11575 -0.75534 0.12547 0.52372 0.72643 0.44499
0.094584 -0.77345 0.12693 -0.27036 0.85291 0.44659
0.07382 -0.78101 0.13157 -0.20533 0.93125 0.30101
0.055796 -0.78568 0.13565 -0.18734 0.95601 0.22571
-0.051141 -0.78548 0.13106 0.22505 0.93513 0.27367
-0.068174 -0.78149 0.13306 0.28461 0.91513 0.28556
-0.085074 -0.77568 0.13385 0.30943 0.87814 0.36486
0.041901 -0.78974 0.14065 -0.19447 0.96207 0.19131
0.024067 -0.792 0.13547 -0.13923 0.95988 0.24341
0.0008697 -0.79337 0.13371 -0.0074566 0.96027 0.27897
-0.025239 -0.79218 0.137 0.13925 0.95747 0.2527
0.012506 0.79923 0.12194 -0.066987 -0.51363 -0.85539
-0.01177 0.79805 0.12282 0.073786 -0.49891 -0.86351
0.060041 0.78295 0.12041 -0.31419 -0.4521 -0.8348
0.037122 0.78189 0.12819 -0.20399 -0.46936 -0.85912
0.017696 0.7775 0.13443 -0.099156 -0.45916 -0.8828
-0.0036525 0.78132 0.133 0.042417 -0.47115 -0.88103
-0.032272 0.78166 0.12834 0.20398 -0.46645 -0.86071
-0.057386 0.7782 0.12211 0.33959 -0.45432 -0.82357
0.080683 0.76502 0.12061 -0.42899 -0.41426 -0.80272
0.057961 0.76262 0.13231 -0.30485 -0.42456 -0.85254
-0.054561 0.76238 0.13212 0.32567 -0.43402 -0.83998
-0.075711 0.76275 0.1217 0.4384 -0.42217 -0.79346
0.097957 0.75 0.11789 -0.51987 -0.3858 -0.76216
0.079858 0.74506 0.13112 -0.41937 -0.39049 -0.81954
-0.074699 0.74377 0.13201 0.42141 -0.39152 -0.818
-0.095848 0.74446 0.11881 0.52585 -0.39224 -0.75474
-0.095703 0.72452 0.12893 0.52003 -0.34513 -0.78132
-0.11621 0.72501 0.11282 0.62027 -0.32939 -0.71188
0.11709 0.70654 0.12395 -0.6043 -0.32047 -0.72947
-0.11732 0.70502 0.12019 0.6302 -0.29441 -0.71845
0.10046 0.68611 0.14416 -0.50668 -0.29787 -0.80904
-0.11719 0.68529 0.1285 0.62551 -0.27403 -0.73051
0.13595 0.66586 0.12326 -0.69396 -0.21164 -0.6882
-0.13648 0.66598 0.11685 0.713 -0.23195 -0.66169
0.11918 0.64883 0.14309 -0.61707 -0.17389 -0.76746
-0.13689 0.64595 0.12253 0.71248 -0.18642 -0.67647
0.12344 0.62655 0.14335 -0.64861 -0.11641 -0.75216
-0.13748 0.62658 0.12735 0.71831 -0.18456 -0.67079
0.12605 0.60703 0.14401 -0.65345 -0.14028 -0.74386
-0.15374 0.60583 0.1131 0.80131 -0.13692 -0.58237
0.13175 0.58936 0.14296 -0.66756 -0.17576 -0.72351
-0.15288 0.58617 0.11822 0.80206 -0.083917 -0.59131
0.15516 0.56925 0.12246 -0.77641 -0.12424 -0.61786
-0.15289 0.56659 0.11985 0.81038 -0.044219 -0.58423
0.14071 0.55039 0.14263 -0.71513 -0.10071 -0.6917
-0.1531 0.54735 0.12055 0.8173 -0.022288 -0.57578
0.143 0.52948 0.14225 -0.73757 -0.041677 -0.67398
-0.15325 0.52845 0.12086 0.82214 -0.01222 -0.56915
0.14395 0.50935 0.1417 -0.75296 0.0024738 -0.65806
-0.15335 0.50951 0.12097 0.82559 -0.00051559 -0.56426
0.14431 0.48904 0.14068 -0.76414 0.039513 -0.64383
-0.15317 0.49045 0.12094 0.82824 0.015094 -0.56017
0.145 0.46632 0.13748 -0.78658 0.075449 -0.61287
-0.15265 0.47102 0.12077 0.83105 0.043308 -0.55451
0.13781 0.44516 0.14334 -0.75465 0.12613 -0.64389
-0.15169 0.45127 0.12041 0.83611 0.081749 -0.54244
0.1406 0.4289 0.13489 -0.77938 0.19899 -0.59411
0.12551 0.40998 0.14696 -0.72294 0.21198 -0.65759
-0.12903 0.41085 0.14126 0.74373 0.18974 -0.64098
0.12528 0.39061 0.14105 -0.7267 0.21809 -0.65142
-0.13929 0.39049 0.1203 0.80464 0.24885 -0.5391
0.12457 0.36929 0.13376 -0.72949 0.28562 -0.6215
0.10566 0.34948 0.1443 -0.65113 0.35019 -0.67335
-0.1073 0.34929 0.1405 0.67618 0.33299 -0.65719
0.10454 0.32836 0.13289 -0.64708 0.42279 -0.63446
-0.09588 0.3279 0.13987 0.61724 0.42424 -0.6626
0.084388 0.30943 0.13819 -0.54743 0.50978 -0.66366
-0.10025 0.30946 0.12138 0.66075 0.4846 -0.57321
0.060875 0.29315 0.14171 -0.43811 0.55426 -0.70771
-0.054089 0.28816 0.14165 0.36741 0.57941 -0.72753
-0.071567 0.28612 0.12943 0.48393 0.58891 -0.6473
0.045389 0.27533 0.13608 -0.34388 0.62612 -0.6998
0.021273 0.27328 0.14243 -0.14445 0.64483 -0.75055
-0.0069479 0.26985 0.14074 0.066562 0.64143 -0.76429
-0.033655 0.26934 0.13423 0.26564 0.63801 -0.72276
-0.0072129 0.15734 0.12383 0.016963 -0.26625 -0.96375
0.032133 0.14109 0.12472 -0.16177 -0.21544 -0.96302
0.006636 0.14215 0.12779 -0.064 -0.21989 -0.97342
-0.013759 0.13916 0.12913 0.047869 -0.2222 -0.97383
-0.032611 0.14557 0.1251 0.15248 -0.24371 -0.95779
-0.054446 0.14037 0.12154 0.23498 -0.23525 -0.9431
0.048843 0.12323 0.12508 -0.22694 -0.16604 -0.95965
0.028789 0.11842 0.13007 -0.13855 -0.1401 -0.9804
0.011755 0.12172 0.13126 -0.072174 -0.14066 -0.98742
-0.0088271 0.12177 0.13197 0.0077048 -0.13007 -0.99148
-0.030214 0.12322 0.13027 0.12563 -0.16199 -0.97876
-0.051309 0.12422 0.12629 0.22467 -0.19124 -0.95548
0.033406 0.1014 0.13109 -0.14278 -0.081866 -0.98636
0.012929 0.10116 0.13293 -0.060765 -0.057364 -0.9965
-0.0064187 0.1018 0.13369 -0.010943 -0.055944 -0.99837
-0.027336 0.10279 0.13311 0.075763 -0.080716 -0.99385
-0.04942 0.1042 0.13013 0.19551 -0.12533 -0.97266
-0.07015 0.10492 0.12416 0.27269 -0.14816 -0.95063
0.069615 0.083456 0.12551 -0.27103 -0.11679 -0.95546
0.049313 0.079477 0.13081 -0.15646 -0.089886 -0.98359
0.033208 0.082368 0.13232 -0.09815 -0.063841 -0.99312
0.01362 0.082312 0.13362 -0.046086 -0.028681 -0.99853
-0.0057091 0.082236 0.13413 -0.013798 -0.014303 -0.9998
-0.025905 0.082663 0.13401 0.04317 -0.025103 -0.99875
-0.047441 0.083717 0.13206 0.14133 -0.060232 -0.98813
-0.06946 0.085274 0.12745 0.26005 -0.10281 -0.96011
0.052577 0.063287 0.13132 -0.15413 -0.057941 -0.98635
0.032088 0.06318 0.13321 -0.063157 -0.030779 -0.99753
0.013248 0.063505 0.13397 -0.026982 -0.015526 -0.99952
-0.0058101 0.063407 0.13413 -0.0069645 -0.0029352 -0.99997
-0.025327 0.063435 0.13413 0.023916 -0.0038696 -0.99971
-0.046298 0.064076 0.13302 0.10325 -0.025217 -0.99434
-0.068946 0.065381 0.12943 0.23701 -0.060376 -0.96963
-0.090436 0.06651 0.12225 0.34212 -0.054115 -0.9381
0.091019 0.046385 0.12284 -0.38219 -0.079343 -0.92067
0.06918 0.041968 0.13035 -0.20434 -0.072626 -0.9762
0.051973 0.044949 0.13232 -0.1068 -0.057984 -0.99259
0.032209 0.044917 0.13363 -0.046027 -0.021539 -0.99871
0.012925 0.044817 0.13413 -0.015228 -0.0064125 -0.99986
-0.0059787 0.044768 0.13413 -0.0013438 -0.0013395 -1
-0.025143 0.044751 0.13413 0.017751 -0.00077061 -0.99984
-0.045621 0.045073 0.13335 0.080656 -0.01151 -0.99668
-0.068126 0.045809 0.13034 0.2087 -0.033566 -0.9774
-0.091682 0.047231 0.12322 0.36058 -0.05523 -0.93109
0.073406 0.026088 0.12998 -0.2371 -0.026372 -0.97113
0.05124 0.025795 0.13314 -0.084318 -0.021548 -0.99621
0.031849 0.026312 0.13397 -0.027326 -0.015156 -0.99951
0.01278 0.026226 0.13413 -0.0069646 -0.0029347 -0.99997
-0.006019 0.026138 0.13413 0 0 -1
-0.025027 0.026207 0.13413 0.0139 -0.0023118 -0.9999
-0.045163 0.026461 0.13347 0.065391 -0.010768 -0.9978
-0.067384 0.026968 0.1311 0.1864 -0.02766 -0.98208
-0.090816 0.027692 0.12459 0.34286 -0.04689 -0.93821
0.075205 0.0078029 0.12977 -0.24608 -0.0095284 -0.9692
0.052094 0.0075167 0.13332 -0.090674 -0.0058902 -0.99586
0.031643 0.0075852 0.13413 -0.019464 -0.0047078 -0.9998
0.012611 0.0075872 0.13413 -0.0013438 -0.0013396 -1
-0.006019 0.007547 0.13413 0 0 -1
-0.024819 0.0076164 0.13413 0.0069647 -0.0023124 -0.99997
-0.044795 0.0079624 0.13374 0.053119 -0.013847 -0.99849
-0.066758 0.0085009 0.13172 0.16555 -0.031795 -0.98569
-0.090067 0.0091922 0.12568 0.32285 -0.05484 -0.94486
0.075649 -0.010868 0.12979 -0.24349 -0.0058753 -0.96989
0.052517 -0.011004 0.13332 -0.092132 -0.0013224 -0.99575
0.03172 -0.011039 0.13413 -0.018614 -0.00016219 -0.99983
0.012571 -0.011044 0.13413 0 0 -1
-0.006019 -0.011044 0.13413 0 0 -1
-0.024657 -0.011021 0.13413 0.0015599 -0.00077998 -1
-0.044334 -0.01072 0.13402 0.037765 -0.010804 -0.99923
-0.065967 -0.010085 0.13236 0.13915 -0.031966 -0.98975
-0.089399 -0.0092518 0.12718 0.30056 -0.059739 -0.95189
0.075257 -0.029389 0.1299 -0.22795 -0.010626 -0.97361
0.052506 -0.029631 0.13332 -0.091761 -9.6638e-005 -0.99578
0.031718 -0.029634 0.13413 -0.018521 0 -0.99983
0.012571 -0.029634 0.13413 0 0 -1
-0.006019 -0.029634 0.13413 0 0 -1
-0.02461 -0.029634 0.13413 0 0 -1
-0.043918 -0.029518 0.13413 0.023916 -0.0038697 -0.99971
-0.065208 -0.02906 0.13299 0.11385 -0.019141 -0.99331
-0.088636 -0.028242 0.12872 0.27512 -0.046396 -0.96029
-0.11181 -0.027451 0.11945 0.43136 -0.066855 -0.8997
0.074571 -0.048024 0.13025 -0.20609 -0.015052 -0.97842
0.052398 -0.048171 0.13333 -0.088151 -0.0017874 -0.99611
0.031718 -0.048225 0.13413 -0.018521 0 -0.99983
0.012571 -0.048225 0.13413 0 0 -1
-0.006019 -0.048225 0.13413 0 0 -1
-0.02461 -0.048225 0.13413 0 0 -1
-0.043759 -0.04823 0.13413 0.018614 0.00016252 -0.99983
-0.06476 -0.04806 0.1333 0.098928 -0.0055057 -0.99508
-0.087992 -0.047825 0.12945 0.25367 -0.013322 -0.9672
-0.11133 -0.047321 0.12102 0.41868 -0.020807 -0.9079
0.074114 -0.066955 0.1306 -0.19677 -0.0046962 -0.98044
0.052202 -0.066744 0.13334 -0.081636 -0.002413 -0.99666
0.031718 -0.066816 0.13413 -0.018521 0 -0.99983
0.012571 -0.066816 0.13413 0 0 -1
-0.006019 -0.066816 0.13413 0 0 -1
-0.02465 -0.066856 0.13413 0.0013438 0.0013396 -1
-0.043681 -0.066854 0.13413 0.019463 0.0047078 -0.9998
-0.064133 -0.066786 0.13332 0.090676 0.0058893 -0.99586
-0.087331 -0.06698 0.12974 0.24898 0.0064729 -0.96849
-0.11117 -0.067413 0.12105 0.42643 0.023347 -0.90422
0.074396 -0.085815 0.13043 -0.20516 0.010154 -0.97867
0.052192 -0.085439 0.13335 -0.081292 0.0010527 -0.99669
0.031718 -0.085407 0.13413 -0.018521 0 -0.99983
0.012571 -0.085407 0.13413 0 0 -1
-0.006019 -0.085407 0.13413 0 0 -1
-0.024817 -0.085493 0.13413 0.0069006 0.0028508 -0.99997
-0.043884 -0.085564 0.13397 0.027205 0.014589 -0.99952
-0.063284 -0.085021 0.13314 0.08449 0.020105 -0.99622
-0.085522 -0.085245 0.12997 0.23965 0.022625 -0.9706
-0.10995 -0.087096 0.12097 0.43699 0.045516 -0.89831
0.075003 -0.1044 0.13003 -0.22196 0.013379 -0.97496
0.05237 -0.10407 0.13333 -0.087224 0.0024768 -0.99619
0.031718 -0.104 0.13413 -0.018521 0 -0.99983
0.012571 -0.104 0.13413 0 0 -1
-0.006019 -0.104 0.13413 0 0 -1
-0.02504 -0.10405 0.13413 0.014328 0.0017423 -0.9999
-0.044628 -0.10421 0.13363 0.046106 0.015515 -0.99882
-0.063758 -0.10357 0.13243 0.079334 0.032878 -0.99631
-0.08162 -0.10057 0.13038 0.20588 0.050286 -0.97728
0.075432 -0.12279 0.12984 -0.23628 0.0066938 -0.97166
0.052489 -0.12261 0.13332 -0.091191 0.00077265 -0.99583
0.031718 -0.12259 0.13413 -0.018521 0 -0.99983
0.012571 -0.12259 0.13413 0 0 -1
-0.006019 -0.12259 0.13413 0 0 -1
-0.025151 -0.1226 0.13413 0.018045 0.00023774 -0.99984
-0.045198 -0.12272 0.13341 0.06411 0.0067391 -0.99792
-0.066678 -0.12294 0.13139 0.14958 0.037835 -0.98802
-0.092363 -0.12108 0.12559 0.32152 0.069776 -0.94433
0.075779 -0.1414 0.12975 -0.24783 0.0073609 -0.96878
0.052512 -0.14118 0.13332 -0.091952 0 -0.99576
0.031718 -0.14118 0.13413 -0.018521 0 -0.99983
0.012571 -0.14118 0.13413 0 0 -1
-0.006019 -0.14118 0.13413 0 0 -1
-0.025168 -0.14118 0.13413 0.018614 0.00016219 -0.99983
-0.045398 -0.14128 0.13336 0.073221 0.0033916 -0.99731
-0.067021 -0.14144 0.13101 0.17284 0.017023 -0.9848
-0.089956 -0.14144 0.12533 0.30927 0.038308 -0.9502
0.076209 -0.16039 0.12938 -0.26217 0.02074 -0.9648
0.052715 -0.15998 0.1333 -0.098743 0.0068873 -0.99509
0.031718 -0.15977 0.13413 -0.018521 0 -0.99983
0.012571 -0.15977 0.13413 0 0 -1
-0.0060593 -0.15981 0.13413 0.0013438 0.0013395 -1
-0.025091 -0.15981 0.13413 0.019463 0.0047077 -0.9998
-0.045183 -0.15982 0.13335 0.078692 0.0086175 -0.99686
-0.066788 -0.16022 0.13073 0.18833 0.025472 -0.98178
-0.088499 -0.16026 0.12507 0.31399 0.046268 -0.9483
0.076949 -0.17978 0.12862 -0.28683 0.047347 -0.95681
0.053168 -0.17893 0.13299 -0.11385 0.01914 -0.99331
0.031879 -0.17848 0.13413 -0.023916 0.0038696 -0.99971
0.012571 -0.17836 0.13413 0 0 -1
-0.006226 -0.17845 0.13413 0.0069005 0.0028508 -0.99997
-0.025293 -0.17852 0.13397 0.027204 0.01459 -0.99952
-0.044575 -0.17803 0.13315 0.080556 0.021895 -0.99651
-0.065936 -0.17839 0.1304 0.20504 0.037552 -0.97803
-0.088476 -0.18004 0.12373 0.33965 0.089393 -0.9363
0.054061 -0.19811 0.13234 -0.14359 0.038786 -0.98888
0.032295 -0.19728 0.13402 -0.037765 0.010803 -0.99923
0.012618 -0.19697 0.13413 -0.0015599 0.00077993 -1
-0.0064516 -0.19701 0.13413 0.014419 0.0018812 -0.99989
-0.026044 -0.19719 0.13363 0.046325 0.016334 -0.99879
-0.045986 -0.19708 0.13233 0.10658 0.051691 -0.99296
-0.062775 -0.19397 0.13042 0.19451 0.068171 -0.97853
0.055575 -0.21782 0.13115 -0.19406 0.07578 -0.97806
0.0331 -0.21637 0.13371 -0.064598 0.027663 -0.99753
0.012739 -0.21565 0.13413 -0.0056112 0.0036757 -0.99998
-0.0064865 -0.2156 0.13413 0.019016 0.005262 -0.99981
-0.026248 -0.2157 0.1334 0.064781 0.014601 -0.99779
-0.047627 -0.21586 0.13136 0.15491 0.039993 -0.98712
-0.072127 -0.21461 0.12591 0.28213 0.093231 -0.95484
0.05755 -0.2379 0.12864 -0.25988 0.12574 -0.95742
0.034571 -0.23575 0.13269 -0.11363 0.053786 -0.99207
0.013362 -0.23427 0.13412 -0.022914 0.0080316 -0.99971
-0.0063433 -0.23375 0.13397 0.027044 0.0034733 -0.99963
-0.025333 -0.23352 0.13317 0.073093 0.016129 -0.99719
-0.04591 -0.23438 0.1309 0.17441 0.043592 -0.98371
-0.068424 -0.23602 0.12522 0.3006 0.090109 -0.94948
0.037883 -0.25465 0.13096 -0.20105 0.064168 -0.97748
0.015258 -0.25207 0.13396 -0.065474 -0.014729 -0.99775
-0.0056967 -0.25046 0.13409 0.031391 -0.039048 -0.99874
-0.025219 -0.2505 0.13287 0.099837 -0.0013753 -0.995
-0.041578 -0.24888 0.13108 0.17081 0.041805 -0.98442
0.020232 -0.26671 0.1339 -0.15683 -0.13209 -0.97875
-0.0044278 -0.26482 0.13521 0.013128 -0.16743 -0.9858
-0.023217 -0.26211 0.13371 0.12097 -0.12761 -0.98442
0.037171 -0.28565 0.14049 -0.2871 -0.84001 -0.4604
0.018113 -0.28081 0.14129 -0.18147 -0.74838 -0.63796
-0.013736 -0.28036 0.14349 0.079822 -0.7332 -0.67531
0.0027772 -0.2736 0.13776 -0.05164 -0.46503 -0.88379
-0.038811 -0.28386 0.13966 0.30626 -0.72205 -0.62036
-0.032381 -0.27512 0.13488 0.2362 -0.41259 -0.87976
0.10065 -0.31112 0.12428 -0.54991 -0.82735 -0.11444
0.077394 -0.29833 0.12781 -0.47294 -0.83433 -0.28324
-0.072466 -0.29813 0.13781 0.44158 -0.832 -0.33584
0.12241 -0.32629 0.12268 -0.61496 -0.78815 -0.025248
-0.096816 -0.31085 0.13147 0.56177 -0.79966 -0.21201
0.14333 -0.3444 0.12339 -0.68826 -0.72545 -0.0040909
-0.11792 -0.32615 0.12777 0.64354 -0.75662 -0.11568
0.16242 -0.36442 0.12572 -0.76321 -0.6461 -0.0080373
-0.13777 -0.34414 0.12424 0.70325 -0.70989 -0.038732
0.17828 -0.38564 0.13103 -0.83161 -0.55487 -0.023516
-0.15686 -0.36393 0.12224 0.74793 -0.66378 0.00061626
-0.17503 -0.38594 0.11892 0.81069 -0.58491 0.025855
0.20013 -0.42976 0.12898 -0.94355 -0.33 0.028345
0.19059 -0.40794 0.1158 -0.89904 -0.42843 0.090366
-0.1889 -0.40871 0.1108 0.88382 -0.46123 0.078283
-0.19883 -0.431 0.11822 0.93987 -0.33547 0.06399
0.20636 -0.45143 0.12316 -0.96822 -0.24276 0.060062
-0.20616 -0.45429 0.12239 0.96073 -0.26781 0.07264
0.20987 -0.47123 0.11895 -0.97899 -0.18134 0.093247
-0.21079 -0.47493 0.1139 0.96123 -0.23048 0.15141
0.21704 -0.50839 0.12564 -0.98466 -0.13562 0.10974
0.21188 -0.48884 0.11083 -0.9745 -0.14753 0.16909
-0.21491 -0.49154 0.11589 0.97089 -0.17828 0.15996
-0.21745 -0.512 0.11627 0.98233 -0.078387 0.16995
0.21809 -0.52932 0.11814 -0.98076 -0.049364 0.18889
-0.2186 -0.53162 0.11785 0.98593 -0.01158 0.16678
0.2172 -0.55074 0.11377 -0.97057 0.056834 0.23402
-0.21869 -0.55069 0.12035 0.98535 0.044257 0.16472
0.21409 -0.56824 0.1095 -0.95047 0.15021 0.27213
-0.21846 -0.56709 0.12555 0.98406 0.11394 0.13652
0.21224 -0.5893 0.11911 -0.96187 0.19225 0.19457
-0.21363 -0.58962 0.12266 0.95988 0.21587 0.17897
0.20773 -0.61065 0.11712 -0.9649 0.18283 0.1885
-0.20462 -0.61554 0.11316 0.93031 0.27191 0.24614
0.20325 -0.63081 0.11381 -0.9432 0.24466 0.22475
-0.19948 -0.63314 0.11413 0.903 0.33526 0.26868
0.19623 -0.64835 0.10891 -0.89501 0.34523 0.28244
-0.1933 -0.6504 0.11865 0.8818 0.39779 0.25335
0.18785 -0.67022 0.11487 -0.85675 0.43917 0.27039
-0.18032 -0.67476 0.11553 0.83001 0.47437 0.29336
0.17397 -0.68909 0.10679 -0.7752 0.51706 0.36293
-0.16457 -0.69673 0.11258 0.75687 0.55487 0.34535
0.16116 -0.70762 0.10948 -0.7126 0.5785 0.3969
-0.14707 -0.71675 0.11027 0.68313 0.61118 0.39973
0.14318 -0.72722 0.10899 -0.63903 0.60746 0.47185
-0.12749 -0.73504 0.10806 0.60288 0.66428 0.44189
0.12266 -0.74548 0.10821 -0.53329 0.67217 0.5136
0.10063 -0.76043 0.1083 -0.40373 0.76773 0.49759
-0.090592 -0.76155 0.10909 0.4027 0.79539 0.45298
-0.1084 -0.74772 0.10368 0.49771 0.72384 0.47784
0.079159 -0.77071 0.11033 -0.30359 0.84844 0.43357
0.058211 -0.77836 0.11338 -0.20879 0.90573 0.36886
0.036318 -0.78366 0.11607 -0.15163 0.92054 0.36001
0.011374 -0.78454 0.11124 -0.05616 0.90865 0.41376
-0.012288 -0.78436 0.11088 0.063074 0.90529 0.42008
-0.03456 -0.78163 0.11113 0.14914 0.89759 0.41484
-0.050742 -0.77856 0.1113 0.24136 0.87676 0.41597
-0.067453 -0.77363 0.11352 0.31285 0.85179 0.42022
0.05658 0.82007 0.099303 -0.31197 -0.52897 -0.78922
0.033798 0.82545 0.10277 -0.19172 -0.52743 -0.82769
0.015672 0.82143 0.1082 -0.077693 -0.52118 -0.8499
-0.010127 0.81875 0.11041 0.060907 -0.52827 -0.84689
-0.037634 0.82073 0.10428 0.2226 -0.52076 -0.82417
-0.058837 0.81639 0.099948 0.35236 -0.49059 -0.79697
0.080767 0.80317 0.099085 -0.43495 -0.49517 -0.75208
0.063603 0.79919 0.1101 -0.33318 -0.48877 -0.80629
0.039837 0.80493 0.11464 -0.20765 -0.50396 -0.8384
-0.028179 0.80462 0.11671 0.17975 -0.50078 -0.8467
-0.051709 0.79827 0.11328 0.31499 -0.47058 -0.82422
-0.076335 0.80022 0.10017 0.4592 -0.44961 -0.76615
0.097763 0.78784 0.097614 -0.53417 -0.43947 -0.72216
0.081411 0.78366 0.11089 -0.43309 -0.43691 -0.78838
-0.075563 0.78156 0.11169 0.44382 -0.44375 -0.77853
-0.097062 0.78237 0.096362 0.5609 -0.42598 -0.70988
-0.096612 0.76343 0.10799 0.54343 -0.41673 -0.72871
0.11765 0.74562 0.10449 -0.6196 -0.36171 -0.69661
-0.1163 0.74453 0.10268 0.62719 -0.38841 -0.67511
0.1037 0.72931 0.12398 -0.54483 -0.36157 -0.75659
-0.1302 0.72786 0.098032 0.68292 -0.33895 -0.64709
0.13814 0.70503 0.10457 -0.696 -0.3091 -0.64811
-0.13754 0.70659 0.099517 0.72529 -0.2534 -0.64011
0.1276 0.68659 0.12381 -0.63804 -0.29383 -0.71174
-0.13779 0.68537 0.10765 0.72999 -0.2599 -0.63212
0.15387 0.66399 0.10319 -0.78217 -0.18396 -0.59528
-0.15332 0.665 0.096025 0.80035 -0.22348 -0.55633
0.14072 0.64488 0.12367 -0.72314 -0.14297 -0.67575
-0.15084 0.64883 0.10549 0.78376 -0.17741 -0.59518
0.14371 0.62474 0.12391 -0.73721 -0.11261 -0.66622
-0.15849 0.62517 0.10043 0.83005 -0.14654 -0.5381
0.14665 0.60666 0.12365 -0.74048 -0.13951 -0.65744
0.15103 0.58872 0.12293 -0.7521 -0.15516 -0.64053
0.15832 0.54875 0.12185 -0.80416 -0.066749 -0.59066
0.15973 0.52855 0.12118 -0.82275 -0.015454 -0.5682
0.16009 0.50881 0.12045 -0.83187 0.018072 -0.55468
0.16053 0.48852 0.1186 -0.84023 0.056761 -0.53925
0.16209 0.46883 0.11289 -0.85646 0.097015 -0.50701
0.15194 0.44909 0.1255 -0.82467 0.13479 -0.54932
0.15429 0.43332 0.1166 -0.84233 0.18661 -0.50563
-0.14908 0.43116 0.12014 0.83541 0.13234 -0.53346
0.14632 0.4106 0.12027 -0.81593 0.19558 -0.54407
-0.14549 0.41057 0.12014 0.82186 0.19917 -0.53374
-0.15732 0.41077 0.098167 0.88392 0.20078 -0.42233
0.13867 0.38689 0.12327 -0.78931 0.22536 -0.57114
0.14048 0.36928 0.1122 -0.80467 0.29085 -0.5176
-0.13211 0.37075 0.12061 0.78566 0.28466 -0.54928
0.12506 0.34606 0.12043 -0.74472 0.35702 -0.56384
-0.12511 0.35081 0.12075 0.76303 0.32706 -0.55751
-0.13814 0.35115 0.099378 0.83155 0.32753 -0.44861
0.11766 0.32391 0.11486 -0.71557 0.44122 -0.54155
-0.11387 0.32966 0.12103 0.71167 0.41426 -0.56738
0.10294 0.30737 0.11853 -0.64171 0.51592 -0.56748
0.08344 0.28899 0.12083 -0.55722 0.57413 -0.5999
-0.087175 0.29379 0.12272 0.60721 0.54171 -0.58125
0.063511 0.27189 0.12172 -0.47257 0.61413 -0.63208
-0.059021 0.2691 0.12091 0.43535 0.65833 -0.61407
-0.08012 0.27955 0.11475 0.56261 0.63867 -0.52495
0.041324 0.26001 0.12328 -0.32254 0.65359 -0.68468
0.016095 0.25359 0.12533 -0.13104 0.64106 -0.75622
-0.015217 0.25034 0.12256 0.15703 0.62286 -0.76641
-0.039831 0.25566 0.11849 0.34749 0.65274 -0.67319
-0.022737 0.23657 0.1103 0.27172 0.41977 -0.866
0.012344 0.21166 0.11004 -0.12357 -0.15467 -0.98021
-0.013167 0.21115 0.11128 0.079165 -0.15978 -0.98397
-0.035145 0.21768 0.10556 0.29316 -0.19936 -0.93505
-0.21278 0.21856 0.097705 -0.063885 -0.45164 -0.88991
-0.23748 0.21534 0.097223 0.16258 -0.26543 -0.95032
0.23672 0.19487 0.096406 -0.29328 -0.013176 -0.95594
0.21156 0.20167 0.10082 -0.11088 -0.30591 -0.94558
0.18687 0.20407 0.10038 0.091086 -0.47449 -0.87554
0.16522 0.20241 0.09659 0.306 -0.53961 -0.78433
0.055383 0.1997 0.10156 -0.36199 -0.34939 -0.86423
0.029583 0.19939 0.11002 -0.20708 -0.2491 -0.94608
0.010466 0.19494 0.11409 -0.089059 -0.21865 -0.97173
-0.0079159 0.197 0.11414 0.025329 -0.20937 -0.97751
-0.030769 0.19926 0.11139 0.1802 -0.23441 -0.95529
-0.05431 0.20317 0.10339 0.34507 -0.31792 -0.8831
-0.19017 0.20055 0.10235 -0.20957 -0.41317 -0.88621
-0.21813 0.19361 0.10662 0.16263 -0.17991 -0.97015
-0.23963 0.19282 0.099497 0.40874 -0.018443 -0.91247
0.20109 0.1759 0.10764 -0.18197 -0.046278 -0.98221
0.17451 0.17971 0.10831 0.11045 -0.20983 -0.97148
0.14983 0.18546 0.099267 0.35849 -0.40241 -0.84235
0.072442 0.18387 0.10136 -0.38515 -0.37632 -0.84264
0.05405 0.18037 0.11012 -0.27331 -0.31485 -0.90894
0.036407 0.18299 0.11321 -0.19108 -0.28542 -0.93916
0.018769 0.18467 0.11534 -0.11294 -0.24312 -0.9634
-0.0023351 0.17862 0.11828 -0.007163 -0.2411 -0.97047
-0.026784 0.18113 0.11615 0.12067 -0.24304 -0.96248
-0.050149 0.18258 0.11154 0.24918 -0.27466 -0.92869
-0.072856 0.18569 0.1024 0.36823 -0.3527 -0.86024
-0.15028 0.18184 0.09885 -0.28729 -0.48714 -0.82472
-0.17442 0.18273 0.10601 -0.21239 -0.32199 -0.92261
-0.19632 0.17429 0.11057 0.022496 -0.068994 -0.99736
-0.2109 0.17797 0.1093 0.152 -0.018441 -0.98821
0.18549 0.15151 0.10834 -0.13027 0.19697 -0.97172
0.15902 0.15571 0.10829 0.12783 0.0099937 -0.99175
0.13557 0.16424 0.10163 0.24395 -0.25748 -0.93498
0.062886 0.16731 0.11128 -0.3055 -0.27223 -0.91245
0.0439 0.16382 0.11708 -0.20016 -0.24392 -0.94892
0.018542 0.16529 0.1209 -0.099611 -0.25501 -0.9618
-0.022991 0.1658 0.121 0.096301 -0.26089 -0.96055
-0.04683 0.16076 0.11816 0.20919 -0.25294 -0.9446
-0.069992 0.16472 0.11098 0.28501 -0.28581 -0.91492
-0.089837 0.17033 0.10176 0.31844 -0.39568 -0.86141
-0.13557 0.16089 0.10488 -0.18581 -0.36977 -0.91035
-0.1562 0.15712 0.11022 -0.1047 -0.20024 -0.97414
-0.17335 0.15938 0.11065 -0.015529 -0.09493 -0.99536
-0.19086 0.15883 0.11054 0.077815 0.075725 -0.99409
0.12428 0.14272 0.10367 0.01852 -0.13837 -0.99021
0.088822 0.14479 0.10847 -0.28872 -0.23557 -0.92798
0.076474 0.1454 0.11257 -0.30474 -0.23519 -0.92294
0.060126 0.14717 0.11728 -0.26285 -0.22291 -0.93873
-0.069841 0.14388 0.11662 0.25439 -0.23514 -0.93808
-0.088005 0.14738 0.1107 0.22835 -0.27143 -0.93498
-0.12149 0.14201 0.10888 -0.040694 -0.25995 -0.96476
-0.13972 0.13635 0.11199 -0.038004 -0.11331 -0.99283
-0.15573 0.13776 0.11175 0.032706 -0.0098967 -0.99942
-0.17267 0.13958 0.11097 0.13179 0.097488 -0.98647
0.0739 0.1271 0.11727 -0.29421 -0.17682 -0.93924
-0.07061 0.12389 0.12117 0.26392 -0.18509 -0.94662
-0.087932 0.12501 0.11589 0.22592 -0.17782 -0.95778
-0.10604 0.12732 0.11247 0.10186 -0.16452 -0.9811
-0.1233 0.11773 0.11317 0.044785 -0.045947 -0.99794
-0.13838 0.11822 0.11226 0.074329 0.044144 -0.99626
-0.15474 0.11969 0.11101 0.1565 0.13966 -0.97775
0.083222 0.1043 0.11817 -0.32138 -0.14186 -0.93626
0.05688 0.10101 0.12635 -0.22609 -0.13322 -0.96495
-0.088156 0.10478 0.11897 0.26702 -0.12489 -0.95557
-0.10428 0.10429 0.11533 0.19387 -0.065025 -0.97887
-0.12083 0.10128 0.11268 0.14144 0.056339 -0.98834
-0.1365 0.10126 0.11097 0.17234 0.15694 -0.97246
0.11482 0.083844 0.10659 -0.47229 -0.064908 -0.87905
0.092925 0.084561 0.11724 -0.37722 -0.11689 -0.91872
-0.088708 0.086198 0.12155 0.30852 -0.10114 -0.94583
-0.10602 0.085299 0.11545 0.30232 -0.023524 -0.95292
-0.11955 0.086198 0.11219 0.25547 0.077032 -0.96374
0.10367 0.066574 0.11488 -0.44495 -0.097862 -0.89019
0.076678 0.062763 0.12592 -0.27753 -0.10964 -0.95444
-0.106 0.070147 0.11633 0.37599 -0.025077 -0.92628
-0.11619 0.049305 0.11148 0.49351 -0.0025368 -0.86974
0.097768 0.027665 0.1212 -0.42789 -0.040563 -0.90292
-0.11419 0.028755 0.1137 0.506 -0.059051 -0.86051
-0.13651 0.028909 0.096946 0.67982 -0.054876 -0.73132
0.099509 0.0084223 0.12088 -0.43018 -0.02671 -0.90235
-0.11283 0.010098 0.11577 0.47888 -0.073217 -0.87482
-0.13376 0.012145 0.1014 0.63185 -0.10655 -0.76773
0.25321 -0.0036074 0.099889 -0.1142 -0.49555 -0.86104
0.22831 0.0015838 0.098403 0.016317 -0.57679 -0.81673
0.20841 0.0022991 0.096117 0.11823 -0.61127 -0.78254
0.098991 -0.010281 0.12154 -0.39547 -0.03871 -0.91766
-0.11236 -0.008366 0.11779 0.45314 -0.080901 -0.88776
-0.13336 -0.0055163 0.10412 0.58118 -0.12496 -0.80412
0.30917 -0.021273 0.097218 -0.2206 -0.25828 -0.94054
0.28936 -0.022879 0.10142 -0.18252 -0.23136 -0.95559
0.27019 -0.027521 0.10582 -0.17653 -0.14247 -0.97393
0.25308 -0.0338 0.10959 -0.14394 -0.052967 -0.98817
0.23452 -0.02653 0.11006 -0.033434 -0.18104 -0.98291
0.21263 -0.022784 0.10879 0.074602 -0.25377 -0.96438
0.19099 -0.01471 0.10275 0.10832 -0.40538 -0.90771
0.17168 -0.018227 0.10303 -0.0029246 -0.36597 -0.93062
0.15524 -0.021181 0.10461 -0.082331 -0.30038 -0.95026
0.14166 -0.026806 0.10713 -0.12702 -0.22247 -0.96663
0.097594 -0.028996 0.12291 -0.343 -0.053222 -0.93783
-0.13302 -0.025177 0.10723 0.53197 -0.10403 -0.84035
0.24004 -0.056278 0.10865 -0.098849 0.26432 -0.95936
0.21901 -0.052934 0.11026 -0.00098564 0.17811 -0.98401
0.19817 -0.049353 0.1099 0.059471 0.078733 -0.99512
0.17944 -0.047004 0.10904 0.026806 0.013391 -0.99955
0.16176 -0.046343 0.10871 -0.033834 -0.0070313 -0.9994
0.14768 -0.042722 0.10952 -0.094075 -0.056496 -0.99396
0.11245 -0.052698 0.11892 -0.34548 -0.023461 -0.93813
0.095372 -0.048922 0.12449 -0.28813 -0.024016 -0.95729
-0.1315 -0.046259 0.11006 0.50233 -0.025203 -0.86431
0.095569 -0.06832 0.12468 -0.30994 0.011428 -0.95069
-0.13198 -0.067393 0.10923 0.52741 0.063996 -0.84719
0.097118 -0.087215 0.12375 -0.34978 0.038472 -0.93604
-0.13281 -0.088198 0.10671 0.58623 0.096514 -0.80437
0.098362 -0.10554 0.12245 -0.3878 0.038876 -0.92092
-0.10435 -0.10497 0.1225 0.40563 0.05364 -0.91246
-0.13182 -0.10897 0.10529 0.63847 0.049809 -0.76804
0.099388 -0.12353 0.12142 -0.41854 0.028053 -0.90776
-0.12009 -0.12492 0.11327 0.52271 0.056563 -0.85063
-0.1402 -0.1284 0.096967 0.72557 0.029137 -0.68753
0.10026 -0.14199 0.12067 -0.44412 0.026884 -0.89557
-0.1137 -0.14253 0.11529 0.47599 0.061612 -0.87729
-0.13586 -0.14387 0.099858 0.67 0.065281 -0.73948
0.10078 -0.16095 0.11979 -0.46133 0.039365 -0.88635
-0.11063 -0.16084 0.11582 0.46976 0.068249 -0.88015
-0.13211 -0.16187 0.10143 0.63245 0.085382 -0.76988
0.10089 -0.18011 0.11846 -0.46253 0.056014 -0.88483
-0.10655 -0.17738 0.11651 0.45162 0.10776 -0.88568
0.1005 -0.19973 0.11723 -0.45061 0.084258 -0.88874
0.077846 -0.19938 0.12689 -0.31674 0.081073 -0.94504
-0.085053 -0.19812 0.12328 0.35879 0.086096 -0.92944
-0.11445 -0.20049 0.10796 0.53474 0.12613 -0.83555
0.10007 -0.21992 0.11496 -0.44211 0.13659 -0.8865
0.078728 -0.21929 0.12411 -0.34614 0.12494 -0.92983
-0.10041 -0.21903 0.11412 0.46622 0.11818 -0.87674
-0.12089 -0.22389 0.10003 0.60078 0.14063 -0.78694
0.079607 -0.23929 0.12044 -0.37544 0.1718 -0.91079
-0.092233 -0.23785 0.11553 0.44066 0.13721 -0.88713
-0.11467 -0.24025 0.10142 0.57906 0.18136 -0.79486
0.0809 -0.25798 0.11602 -0.40589 0.18216 -0.89559
0.060208 -0.25699 0.12439 -0.32782 0.14582 -0.93342
-0.061919 -0.25444 0.12533 0.30802 0.090222 -0.94709
-0.085393 -0.25748 0.11557 0.43935 0.15175 -0.8854
0.083191 -0.27418 0.11161 -0.44502 0.1243 -0.88685
0.064504 -0.27242 0.12024 -0.39778 0.072207 -0.91464
0.044052 -0.26993 0.12816 -0.31457 -0.027041 -0.94885
-0.047608 -0.26587 0.12873 0.28318 -0.040396 -0.95822
-0.0772 -0.27567 0.11653 0.47485 0.071292 -0.87718
-0.10038 -0.2776 0.10205 0.57647 0.19873 -0.79258
0.070832 -0.28214 0.11669 -0.45898 -0.077501 -0.88506
0.048052 -0.28417 0.13039 -0.39982 -0.64679 -0.64947
0.054636 -0.2805 0.12479 -0.43073 -0.22545 -0.87387
0.031182 -0.27654 0.13342 -0.2915 -0.37724 -0.87904
-0.065895 -0.28206 0.12257 0.49848 -0.22029 -0.83845
-0.081255 -0.28693 0.11317 0.57608 -0.094607 -0.8119
0.10121 -0.30897 0.10547 -0.7051 -0.67914 -0.20397
0.082709 -0.29675 0.11528 -0.58583 -0.65935 -0.47123
0.066593 -0.29094 0.12463 -0.47229 -0.72813 -0.49676
0.072016 -0.2894 0.11804 -0.53674 -0.41457 -0.73488
-0.06284 -0.28759 0.12817 0.47749 -0.64904 -0.59225
-0.089347 -0.30117 0.11665 0.62947 -0.71119 -0.313
-0.088324 -0.29518 0.10965 0.68929 -0.3533 -0.63251
0.12024 -0.32593 0.09793 -0.68173 -0.72814 0.071095
-0.10594 -0.31416 0.11268 0.65292 -0.74748 -0.12233
0.14056 -0.34414 0.099584 -0.69161 -0.70736 0.14602
-0.12221 -0.32883 0.10434 0.72102 -0.69252 0.023277
0.15995 -0.36395 0.1021 -0.75519 -0.638 0.1505
-0.13957 -0.34757 0.10019 0.72715 -0.67361 0.13228
0.17666 -0.3854 0.10749 -0.83077 -0.5424 0.12498
-0.15744 -0.3676 0.097723 0.74695 -0.64238 0.17151
-0.17449 -0.39083 0.091664 0.79914 -0.55956 0.21971
0.19795 -0.4331 0.10258 -0.9324 -0.30875 0.18791
0.18618 -0.40839 0.091474 -0.8786 -0.41253 0.24059
-0.18749 -0.41307 0.089601 0.87351 -0.41649 0.25201
-0.19599 -0.43105 0.095054 0.92875 -0.29901 0.21912
0.2051 -0.45537 0.10448 -0.95631 -0.22533 0.18629
-0.20133 -0.45161 0.097265 0.9483 -0.2276 0.22121
0.20637 -0.47095 0.097079 -0.95564 -0.16561 0.24359
-0.20579 -0.47126 0.095738 0.94039 -0.20706 0.26979
0.20677 -0.48616 0.090872 -0.94656 -0.11963 0.29953
-0.20894 -0.49113 0.093847 0.93811 -0.15075 0.31182
0.21118 -0.50667 0.097864 -0.95432 -0.086234 0.28607
-0.21153 -0.51125 0.094024 0.94427 -0.074323 0.32067
0.21125 -0.53023 0.094045 -0.93809 -0.01575 0.34604
-0.2127 -0.5317 0.095135 0.94762 0.00053761 0.31941
0.20988 -0.55134 0.091678 -0.92084 0.07441 0.38278
-0.21276 -0.55228 0.097881 0.94771 0.074504 0.31032
0.20741 -0.57174 0.09251 -0.91598 0.14635 0.37359
-0.21263 -0.57252 0.10497 0.94581 0.1535 0.28616
0.2048 -0.59143 0.094029 -0.92264 0.16195 0.35002
-0.20313 -0.59702 0.093298 0.90162 0.23381 0.36389
0.20079 -0.61122 0.093027 -0.91295 0.18755 0.36242
-0.19844 -0.61546 0.094234 0.87962 0.29437 0.37365
0.19461 -0.63169 0.090892 -0.87236 0.27147 0.40655
-0.19244 -0.63268 0.09613 0.85071 0.35336 0.38914
0.18668 -0.65298 0.090365 -0.81608 0.38188 0.43379
-0.18135 -0.65541 0.093867 0.81671 0.40626 0.4098
0.17447 -0.67375 0.089666 -0.75684 0.46718 0.4571
-0.16786 -0.67742 0.092459 0.74946 0.50023 0.43368
0.15931 -0.69423 0.088586 -0.67473 0.55307 0.48873
-0.15121 -0.69763 0.090288 0.67057 0.57062 0.47406
0.14176 -0.71375 0.089509 -0.61005 0.60729 0.50895
-0.1321 -0.71623 0.088511 0.59785 0.61734 0.51133
0.12271 -0.73243 0.090729 -0.53995 0.65164 0.53274
-0.11178 -0.73285 0.086709 0.50698 0.6655 0.5478
0.10577 -0.74701 0.093395 -0.45673 0.70744 0.53937
0.083883 -0.75463 0.087711 -0.3558 0.74726 0.56125
-0.070093 -0.75822 0.089169 0.31533 0.7774 0.54426
-0.091246 -0.74614 0.086862 0.40818 0.72142 0.55941
0.064403 -0.76768 0.09465 -0.26109 0.82365 0.50343
0.044905 -0.77044 0.091903 -0.15546 0.84373 0.51376
0.023509 -0.77184 0.089725 -0.081133 0.84279 0.5321
0.0014392 -0.77178 0.087936 0.0038584 0.83348 0.55254
-0.021218 -0.77039 0.088207 0.1038 0.82532 0.55504
-0.046561 -0.76781 0.09155 0.21622 0.81071 0.54406
0.012277 0.85808 0.083211 -0.073148 -0.60773 -0.79077
-0.014184 0.85927 0.083138 0.071514 -0.60348 -0.79416
-0.036009 0.85655 0.081103 0.22431 -0.58338 -0.78061
0.058919 0.84151 0.083413 -0.32653 -0.54659 -0.77111
0.03681 0.84129 0.091715 -0.2137 -0.56341 -0.79806
0.019677 0.83795 0.097657 -0.10934 -0.55806 -0.82256
-0.00012012 0.8401 0.097098 0.0038374 -0.5593 -0.82896
-0.025041 0.83974 0.095157 0.15601 -0.54371 -0.82465
-0.055187 0.83925 0.086317 0.33537 -0.53793 -0.77341
-0.080907 0.83502 0.075274 0.49152 -0.50821 -0.70719
0.081003 0.82262 0.085723 -0.44037 -0.51059 -0.73849
-0.077742 0.81931 0.087903 0.47427 -0.47776 -0.73947
0.10135 0.80388 0.084521 -0.55356 -0.47007 -0.68746
-0.097398 0.80138 0.084685 0.57537 -0.4362 -0.69186
0.11583 0.78386 0.084765 -0.62691 -0.41473 -0.65953
-0.11683 0.78326 0.077998 0.66 -0.40478 -0.63289
0.10386 0.7676 0.1044 -0.55829 -0.39457 -0.72981
-0.11745 0.76356 0.089675 0.65038 -0.40295 -0.64392
0.1379 0.74332 0.085227 -0.70841 -0.34443 -0.61605
-0.13705 0.7417 0.081328 0.73186 -0.37684 -0.56777
0.12844 0.72513 0.10504 -0.65615 -0.33621 -0.6756
0.15598 0.70376 0.083474 -0.78683 -0.27848 -0.55077
-0.15279 0.7063 0.07968 0.81245 -0.23232 -0.53474
0.1477 0.68488 0.10361 -0.74372 -0.25958 -0.61603
-0.15894 0.68333 0.079618 0.83857 -0.21322 -0.50134
0.15775 0.64349 0.10305 -0.80223 -0.12619 -0.58352
0.16039 0.62451 0.10289 -0.80756 -0.1158 -0.57831
-0.17379 0.62305 0.072745 0.90714 -0.108 -0.40673
0.17707 0.60562 0.079901 -0.89581 -0.10578 -0.43166
0.16349 0.60649 0.10253 -0.81327 -0.13457 -0.56611
-0.1669 0.60149 0.093553 0.87809 -0.10857 -0.46603
-0.17432 0.60453 0.076619 0.91338 -0.10028 -0.39457
0.16747 0.58768 0.10165 -0.83403 -0.12743 -0.5368
-0.16629 0.58466 0.097181 0.87725 -0.054385 -0.47694
-0.17562 0.5842 0.076982 0.92407 -0.038789 -0.38025
0.17078 0.56767 0.10046 -0.8639 -0.080025 -0.49726
-0.1661 0.56582 0.09877 0.88229 -0.021992 -0.4702
-0.17565 0.56512 0.077842 0.92676 -0.0020844 -0.37565
0.17247 0.54757 0.099426 -0.88597 -0.029688 -0.46279
-0.16624 0.54695 0.099247 0.88801 -0.0091025 -0.45973
-0.17552 0.54634 0.077705 0.93347 0.011368 -0.35847
0.17299 0.52805 0.098941 -0.89472 0.0013287 -0.44662
-0.16637 0.52816 0.099079 0.89241 -0.0023845 -0.45123
-0.17549 0.52772 0.077082 0.94117 0.012139 -0.33771
0.1731 0.5087 0.09812 -0.89817 0.024145 -0.43898
-0.16642 0.50939 0.098976 0.89413 0.0036632 -0.44779
-0.17558 0.50932 0.076599 0.94685 0.0059227 -0.32161
0.17339 0.48897 0.095798 -0.90221 0.05965 -0.42714
-0.16615 0.49036 0.098998 0.89357 0.018281 -0.44855
-0.17549 0.49047 0.076593 0.94684 0.014587 -0.32139
0.17399 0.46922 0.090519 -0.90886 0.10995 -0.40235
-0.16557 0.47064 0.099029 0.8915 0.055894 -0.44956
-0.17482 0.47084 0.076941 0.94164 0.049267 -0.333
0.16381 0.44978 0.10476 -0.87622 0.14816 -0.45857
-0.16368 0.45092 0.098987 0.8904 0.096906 -0.44474
0.16305 0.42988 0.098772 -0.87924 0.18433 -0.43926
-0.16097 0.43079 0.098804 0.88584 0.15403 -0.43768
0.16214 0.4108 0.092798 -0.88128 0.18257 -0.43591
0.15228 0.39098 0.10363 -0.85353 0.21804 -0.47324
-0.15175 0.39063 0.098237 0.87069 0.24644 -0.42564
0.15366 0.37136 0.08992 -0.86711 0.27792 -0.41337
-0.14602 0.37078 0.098755 0.85104 0.28593 -0.44042
0.14211 0.34967 0.09656 -0.82083 0.35461 -0.44777
0.13121 0.32815 0.097804 -0.78602 0.42879 -0.44531
-0.12874 0.3314 0.10088 0.78924 0.39689 -0.4686
0.11794 0.30705 0.097763 -0.72875 0.52082 -0.4446
-0.11632 0.31079 0.1016 0.72501 0.49915 -0.47456
0.10155 0.28751 0.099385 -0.66115 0.5815 -0.47406
-0.098815 0.28875 0.10183 0.67158 0.58778 -0.4511
0.08261 0.26954 0.10114 -0.5947 0.61035 -0.52326
-0.080029 0.2678 0.098606 0.59684 0.65278 -0.46653
0.062537 0.25441 0.10402 -0.50444 0.60797 -0.61312
0.040108 0.24393 0.10908 -0.36356 0.57252 -0.73487
-0.03574 0.24522 0.11086 0.37642 0.57407 -0.72715
-0.058015 0.25159 0.1016 0.51764 0.59997 -0.60999
0.27012 0.26014 0.077772 -0.18112 -0.43365 -0.88269
0.24349 0.25954 0.078253 0.20078 -0.54174 -0.81621
0.040727 0.23455 0.1024 -0.42477 0.33167 -0.84236
0.012619 0.23704 0.11337 -0.1333 0.44607 -0.88502
-0.045242 0.24005 0.10153 0.4831 0.43263 -0.76121
-0.25008 0.25809 0.07846 -0.065724 -0.4912 -0.86856
-0.27814 0.25177 0.078283 0.26097 -0.22652 -0.9384
0.25693 0.23932 0.088413 -0.10057 -0.28658 -0.95276
0.2283 0.24489 0.081892 0.28307 -0.49531 -0.8213
0.02745 0.22603 0.10608 -0.30115 0.088951 -0.94942
-0.0084254 0.22512 0.11017 0.089545 0.06562 -0.99382
-0.043588 0.2322 0.099963 0.46465 0.06042 -0.88343
-0.20035 0.23776 0.080739 -0.32743 -0.65341 -0.68253
-0.22644 0.24076 0.086209 -0.14767 -0.53561 -0.83145
-0.25641 0.23364 0.089084 0.21662 -0.25945 -0.94115
-0.27658 0.23286 0.082218 0.41259 -0.087677 -0.90669
0.26907 0.21453 0.08826 -0.38113 0.076376 -0.92136
0.24418 0.21761 0.093574 -0.091262 -0.13159 -0.98709
0.21532 0.22824 0.088097 0.15206 -0.51066 -0.84623
0.19209 0.22552 0.08508 0.22049 -0.67292 -0.70609
0.17013 0.22092 0.080746 0.34765 -0.73542 -0.58163
0.06821 0.21953 0.085267 -0.5892 -0.32957 -0.73772
0.041883 0.21603 0.10203 -0.36912 -0.19333 -0.90905
-0.062065 0.22391 0.091043 0.52901 -0.30073 -0.79354
-0.081656 0.222 0.077296 0.62273 -0.4495 -0.64043
-0.18033 0.2251 0.079925 -0.47824 -0.66111 -0.57812
-0.25187 0.21813 0.093448 0.28036 -0.11638 -0.95281
0.14871 0.21002 0.078983 0.46101 -0.69645 -0.54993
0.081424 0.20423 0.084799 -0.51041 -0.49502 -0.70316
-0.076655 0.20583 0.091245 0.49079 -0.41432 -0.76646
-0.09566 0.20922 0.072985 0.62795 -0.53198 -0.56805
-0.13865 0.20054 0.074929 -0.43953 -0.76128 -0.47673
-0.15998 0.20777 0.082618 -0.44155 -0.68042 -0.58486
-0.26257 0.19048 0.084917 0.59699 0.24523 -0.76385
0.22618 0.16962 0.098835 -0.42069 0.18513 -0.88811
0.13156 0.194 0.082939 0.38874 -0.63798 -0.66473
0.093616 0.18494 0.090156 -0.3638 -0.50106 -0.78523
-0.093337 0.19083 0.089192 0.46757 -0.48542 -0.73874
-0.1277 0.18746 0.083583 -0.3001 -0.71376 -0.63283
-0.23332 0.16952 0.10039 0.46336 0.201 -0.86307
0.21083 0.1466 0.098844 -0.41752 0.37463 -0.82785
0.11731 0.17591 0.091175 0.10479 -0.52676 -0.84353
0.10529 0.17396 0.09243 -0.18366 -0.48783 -0.8534
0.095767 0.16325 0.10054 -0.27276 -0.36746 -0.88914
0.0797 0.1624 0.10637 -0.33124 -0.30676 -0.89229
-0.10696 0.18076 0.088341 0.29435 -0.60111 -0.74298
-0.11722 0.17205 0.094124 -0.04957 -0.59534 -0.80194
-0.21546 0.15178 0.10295 0.35127 0.30509 -0.88517
0.1949 0.129 0.096788 -0.33113 0.52056 -0.787
0.17313 0.12656 0.10092 -0.15063 0.44048 -0.88504
0.1481 0.12955 0.10393 -0.061183 0.19365 -0.97916
0.10658 0.14888 0.10289 -0.15963 -0.27312 -0.94864
-0.10454 0.15693 0.1041 0.14117 -0.40127 -0.90502
-0.19637 0.13386 0.10332 0.3203 0.32306 -0.89053
0.14819 0.10595 0.096958 -0.29896 0.35124 -0.88727
0.13296 0.11848 0.10335 -0.13267 0.14052 -0.98115
0.11656 0.11785 0.10581 -0.22022 -0.0094039 -0.97541
0.096147 0.1241 0.11025 -0.28889 -0.15212 -0.9452
-0.1779 0.11492 0.10307 0.33936 0.34239 -0.87613
0.1345 0.09947 0.098534 -0.32519 0.2254 -0.91839
0.12215 0.095588 0.10277 -0.40027 0.059776 -0.91444
0.10483 0.10187 0.10992 -0.36375 -0.070234 -0.92884
-0.15939 0.096602 0.10298 0.34783 0.34431 -0.87205
-0.14194 0.079622 0.1035 0.3726 0.29452 -0.88002
0.12352 0.068597 0.10288 -0.56248 -0.044367 -0.82562
-0.12772 0.065375 0.10601 0.4614 0.13145 -0.8774
0.11786 0.048937 0.10791 -0.56874 -0.043319 -0.82138
-0.1439 0.043217 0.090129 0.72176 0.095006 -0.68559
0.12138 0.02806 0.10658 -0.58984 -0.057083 -0.8055
-0.15428 0.028316 0.075442 0.85043 -0.07151 -0.52121
0.26314 0.017908 0.078855 -0.18644 -0.81036 -0.55548
0.24189 0.020152 0.079322 -0.025458 -0.84082 -0.54072
0.21824 0.022082 0.073614 0.073883 -0.88782 -0.45422
0.1211 0.0097506 0.10811 -0.51923 -0.11255 -0.84719
-0.15071 0.014846 0.083689 0.77216 -0.16404 -0.61389
0.33762 0.0017761 0.076488 -0.31712 -0.55157 -0.7715
0.31532 0.0044256 0.081536 -0.1777 -0.63542 -0.75144
0.29395 0.0057381 0.084262 -0.1229 -0.6893 -0.71397
0.27646 0.002953 0.0908 -0.19541 -0.62823 -0.75309
0.19613 0.015279 0.080145 0.11353 -0.80502 -0.58228
0.17961 0.0088455 0.085365 -0.011987 -0.70895 -0.70516
0.16382 0.0035771 0.091005 -0.15045 -0.57354 -0.80524
0.14603 -0.0056083 0.099602 -0.23178 -0.36069 -0.90343
0.13238 -0.011094 0.10529 -0.37466 -0.20481 -0.90426
0.11871 -0.010386 0.11183 -0.42355 -0.096369 -0.90073
-0.14814 0.0010752 0.090236 0.6981 -0.18964 -0.69043
0.35245 -0.024291 0.080978 -0.44487 -0.18117 -0.87708
0.33172 -0.023648 0.090859 -0.36455 -0.19554 -0.91042
0.13429 -0.023072 0.10791 -0.26071 -0.19739 -0.94502
0.11858 -0.030153 0.11433 -0.3573 -0.12569 -0.92549
-0.15287 -0.016353 0.09135 0.57685 -0.2473 -0.77852
-0.18132 -0.020328 0.080595 0.17188 -0.4798 -0.86037
-0.19981 -0.01928 0.078152 0.13495 -0.52461 -0.84058
0.32105 -0.049484 0.0944 -0.30567 0.23881 -0.9217
0.30152 -0.053598 0.09838 -0.20607 0.30814 -0.92876
0.28197 -0.055684 0.10137 -0.18608 0.33059 -0.92525
0.26194 -0.061981 0.1025 -0.19914 0.40336 -0.89311
0.13205 -0.04901 0.11139 -0.25874 -0.016251 -0.96581
-0.1493 -0.044322 0.09917 0.49993 -0.048653 -0.8647
-0.16585 -0.040871 0.090826 0.32715 -0.13007 -0.93598
-0.17907 -0.052849 0.089942 0.13256 0.0056637 -0.99116
-0.19554 -0.047471 0.087961 0.13543 -0.07102 -0.98824
-0.21742 -0.037565 0.082418 0.16332 -0.24374 -0.95599
-0.23713 -0.037651 0.080099 0.16593 -0.2403 -0.95641
0.24594 -0.079903 0.095375 -0.18578 0.63696 -0.74818
0.22689 -0.080826 0.097875 -0.090102 0.60369 -0.79211
0.20612 -0.07914 0.10022 -0.023473 0.53473 -0.84469
0.18673 -0.077287 0.10148 -0.010423 0.46852 -0.88339
0.16894 -0.074724 0.10287 -0.050842 0.38949 -0.91962
0.15012 -0.071112 0.10521 -0.15879 0.26766 -0.95034
0.13469 -0.079811 0.10755 -0.38487 0.191 -0.90299
0.11631 -0.071114 0.11651 -0.38382 0.067328 -0.92095
-0.14575 -0.064255 0.1008 0.51884 0.091116 -0.85
0.13387 -0.096735 0.10361 -0.49963 0.18699 -0.84581
0.118 -0.090856 0.11362 -0.44968 0.10607 -0.88687
-0.1516 -0.088673 0.091572 0.58712 0.24039 -0.77299
0.11995 -0.10783 0.11086 -0.51673 0.087605 -0.85166
-0.15104 -0.10922 0.085534 0.75005 0.17808 -0.63696
0.12215 -0.12507 0.10791 -0.57512 0.075992 -0.81453
-0.1521 -0.12505 0.081234 0.84063 0.043328 -0.53987
0.1233 -0.14268 0.10585 -0.61263 0.05002 -0.78879
-0.15223 -0.14239 0.080581 0.84554 0.02379 -0.53338
0.12337 -0.16073 0.10509 -0.60725 0.022957 -0.79418
-0.15003 -0.15988 0.082875 0.80358 0.038733 -0.59394
0.12201 -0.17946 0.10562 -0.54385 -0.00038061 -0.83918
-0.12673 -0.18109 0.10272 0.60136 0.12357 -0.78937
0.16707 -0.19271 0.084007 -0.35049 -0.3668 -0.86175
0.14673 -0.19641 0.092483 -0.37658 -0.14302 -0.91528
0.13252 -0.20249 0.099761 -0.44707 -0.00095726 -0.8945
0.11915 -0.20073 0.10625 -0.46979 0.072079 -0.87983
-0.14211 -0.19966 0.08626 0.69023 0.1161 -0.71422
0.20353 -0.20943 0.079689 -0.32182 -0.49114 -0.80945
0.17887 -0.20891 0.087344 -0.24061 -0.33333 -0.91159
0.16088 -0.21529 0.09268 -0.16513 -0.15758 -0.9736
0.14767 -0.21525 0.094849 -0.21314 -0.072631 -0.97432
0.13333 -0.21892 0.09868 -0.35313 0.051736 -0.93414
0.11754 -0.21978 0.10526 -0.43021 0.10345 -0.89678
-0.13716 -0.22078 0.086842 0.66292 0.1506 -0.73338
0.22124 -0.23024 0.083906 -0.32427 -0.38389 -0.86457
0.1974 -0.23448 0.091706 -0.14167 -0.20105 -0.96928
0.1812 -0.23096 0.092637 -0.095279 -0.14386 -0.985
0.16293 -0.23317 0.093789 -0.057677 -0.003945 -0.99833
0.14986 -0.23326 0.094733 -0.10161 0.076573 -0.99187
0.11775 -0.24042 0.10252 -0.3955 0.17745 -0.90116
0.0998 -0.23983 0.11099 -0.42983 0.18387 -0.88399
-0.13302 -0.24154 0.085641 0.66725 0.2171 -0.71249
0.24027 -0.25016 0.084517 -0.33481 -0.30779 -0.8906
0.21722 -0.25533 0.092271 -0.15435 -0.096278 -0.98331
0.19935 -0.25373 0.093377 -0.028032 -0.014941 -0.9995
0.17959 -0.25589 0.092735 0.059447 0.14073 -0.98826
0.16494 -0.25243 0.092517 0.050977 0.18202 -0.98197
0.10039 -0.25933 0.1058 -0.44006 0.21314 -0.87231
-0.10765 -0.25887 0.1019 0.56996 0.20232 -0.79638
0.25984 -0.26802 0.08337 -0.33671 -0.2788 -0.89939
0.23556 -0.27841 0.090583 -0.093276 0.053365 -0.99421
0.21832 -0.27689 0.09115 -0.026971 0.16746 -0.98551
0.20151 -0.27388 0.091807 0.067987 0.22458 -0.97208
0.10289 -0.27806 0.099938 -0.52293 0.20888 -0.82639
-0.12001 -0.27861 0.085433 0.68967 0.27113 -0.67145
0.2778 -0.28616 0.080753 -0.40706 -0.14468 -0.90187
0.25934 -0.2922 0.08778 -0.17148 0.072781 -0.9825
0.087722 -0.28807 0.10784 -0.5471 -0.028323 -0.83659
-0.095107 -0.2911 0.1029 0.65025 0.031458 -0.75907
0.10007 -0.30351 0.099067 -0.7966 -0.27121 -0.54025
-0.11136 -0.31041 0.083125 0.89043 -0.0051263 -0.45509
