-0.01261 -0.17658 -0.018034 0 1 0
-0.029401 -0.17658 -0.018034 0 1 0
-0.046191 -0.17658 -0.018034 0 1 0
-0.062981 -0.17658 -0.018034 0 1 0
-0.079771 -0.17658 -0.018034 0 1 0
-0.096562 -0.17658 -0.018034 0 1 0
-0.11335 -0.17658 -0.018034 0 1 0
-0.13014 -0.17658 -0.018034 0 1 0
-0.14693 -0.17658 -0.018034 0 1 0
-0.16372 -0.17658 -0.018034 0 1 0
-0.18051 -0.17658 -0.018034 0 1 0
-0.1973 -0.17658 -0.018034 0 1 0
-0.21409 -0.17658 -0.018034 0 1 0
-0.23088 -0.17658 -0.018034 0 1 0
-0.24953 -0.17656 -0.018034 0.018513 0.99983 0
-0.27394 -0.1755 -0.018034 0.094716 0.9955 0
-0.3084 -0.16953 -0.017412 0.27772 0.96066 0
-0.35246 -0.14904 -0.014925 0.57526 0.81797 0
0.36082 0.063058 -0.031715 -0.57526 -0.81797 0
0.31676 0.083546 -0.034202 -0.27771 -0.96066 0
0.28229 0.089518 -0.034824 -0.094711 -0.9955 0
0.25788 0.090573 -0.034824 -0.018513 -0.99983 0
0.23924 0.09059 -0.034824 0 -1 0
0.22245 0.09059 -0.034824 0 -1 0
0.20566 0.09059 -0.034824 0 -1 0
0.18887 0.09059 -0.034824 0 -1 0
0.17208 0.09059 -0.034824 0 -1 0
0.1546 0.090587 -0.035055 0.0069472 -0.99997 0.0023122
0.13365 0.090148 -0.036442 0.048532 -0.99869 0.016182
0.1079 0.087823 -0.039221 0.13812 -0.98944 0.043968
-0.074557 0.082198 -0.03784 -0.2132 -0.97631 0.036858
-0.097791 0.086943 -0.035799 -0.15427 -0.98797 0.011079
-0.1229 0.089705 -0.034934 -0.072412 -0.99737 0.0011009
-0.14508 0.090573 -0.034824 -0.018513 -0.99983 0
-0.16372 0.09059 -0.034824 0 -1 0
-0.18051 0.09059 -0.034824 0 -1 0
-0.1973 0.09059 -0.034824 0 -1 0
-0.21409 0.09059 -0.034824 0 -1 0
-0.23088 0.09059 -0.034824 0 -1 0
-0.24953 0.090573 -0.034824 0.018513 -0.99983 0
-0.27394 0.089518 -0.034824 0.094716 -0.9955 0
-0.3084 0.083546 -0.035446 0.27772 -0.96066 0
0.40049 0.019564 -0.026118 -0.87242 -0.48875 0
0.082179 0.082421 -0.042192 0.22835 -0.97086 0.072739
0.063901 0.077634 -0.042796 0.24572 -0.96621 0.077848
0.054446 0.075283 -0.0423 0.17454 -0.98188 0.073821
0.047229 0.074453 -0.042209 0.079432 -0.9941 0.073848
0.036534 0.07414 -0.042089 0.018483 -0.99719 0.072648
0.021592 0.074148 -0.042203 0 -0.99727 0.073788
0.004802 0.074148 -0.042203 0 -0.99727 0.073788
-0.011749 0.074144 -0.042265 -0.0024 -0.99723 0.074405
-0.02717 0.074165 -0.042682 -0.015112 -0.99699 0.076051
-0.038747 0.074475 -0.042549 -0.060543 -0.99583 0.068316
-0.04529 0.075105 -0.041901 -0.15457 -0.98592 0.063839
-0.056368 0.077731 -0.040422 -0.21599 -0.9745 0.06081
-0.35246 0.063058 -0.037934 0.57526 -0.81797 0
-0.39213 0.019567 -0.04353 0.87241 -0.48878 0
0.41698 -0.042994 -0.034824 -1 9.2763e-006 0
-0.40862 -0.042994 -0.034824 1 9.2784e-006 0
0.40049 -0.10555 -0.04353 -0.87242 0.48876 0
-0.39213 -0.10555 -0.026118 0.8724 0.48879 0
0.36082 -0.14904 -0.037934 -0.57526 0.81797 0
0.31676 -0.16953 -0.035446 -0.27771 0.96066 0
0.28229 -0.1755 -0.034824 -0.094711 0.9955 0
0.25788 -0.17656 -0.034824 -0.018513 0.99983 0
0.23924 -0.17658 -0.034824 0 1 0
0.22245 -0.17658 -0.034824 0 1 0
0.20566 -0.17658 -0.034824 0 1 0
0.18887 -0.17658 -0.034824 0 1 0
0.17208 -0.17658 -0.034824 0 1 0
0.15529 -0.17658 -0.034824 0 1 0
0.1385 -0.17658 -0.034824 0 1 0
0.12171 -0.17658 -0.034824 0 1 0
0.10492 -0.17658 -0.034824 0 1 0
0.088131 -0.17658 -0.034824 0 1 0
0.071341 -0.17658 -0.034824 0 1 0
0.05455 -0.17658 -0.034824 0 1 0
0.03776 -0.17658 -0.034824 0 1 0
0.02097 -0.17658 -0.034824 0 1 0
0.00418 -0.17658 -0.034824 0 1 0
-0.01261 -0.17658 -0.034824 0 1 0
-0.029401 -0.17658 -0.034824 0 1 0
-0.046191 -0.17658 -0.034824 0 1 0
-0.062981 -0.17658 -0.034824 0 1 0
-0.079771 -0.17658 -0.034824 0 1 0
-0.096562 -0.17658 -0.034824 0 1 0
-0.11335 -0.17658 -0.034824 0 1 0
-0.13014 -0.17658 -0.034824 0 1 0
-0.14693 -0.17658 -0.034824 0 1 0
-0.16372 -0.17658 -0.034824 0 1 0
-0.18051 -0.17658 -0.034824 0 1 0
-0.1973 -0.17658 -0.034824 0 1 0
-0.21409 -0.17658 -0.034824 0 1 0
-0.23088 -0.17658 -0.034824 0 1 0
-0.24953 -0.17656 -0.034824 0.018513 0.99983 0
-0.27394 -0.1755 -0.034824 0.094716 0.9955 0
-0.3084 -0.16953 -0.034202 0.27772 0.96066 0
-0.35246 -0.14904 -0.031715 0.57526 0.81797 0
0.36082 0.063058 -0.048505 -0.57526 -0.81797 0
0.31676 0.083546 -0.050993 -0.27771 -0.96066 0
0.28229 0.089518 -0.051615 -0.094711 -0.9955 0
0.25788 0.090573 -0.051615 -0.018513 -0.99983 0
0.23924 0.09059 -0.051615 0 -1 0
0.22245 0.09059 -0.051615 0 -1 0
0.20566 0.09059 -0.051615 0 -1 0
0.18887 0.09059 -0.051615 0 -1 0
0.17208 0.09059 -0.051615 0 -1 0
0.1539 0.09058 -0.051847 0.013901 -0.9999 0.0023215
0.13204 0.089829 -0.052769 0.064631 -0.99784 0.011535
0.10578 0.087032 -0.053907 0.15927 -0.98697 0.022918
-0.073543 0.08172 -0.052395 -0.22952 -0.97327 0.0084663
-0.097084 0.08677 -0.051778 -0.16268 -0.98668 0.0016339
-0.12276 0.089695 -0.051615 -0.073789 -0.99727 0
-0.14508 0.090573 -0.051615 -0.018513 -0.99983 0
-0.16372 0.09059 -0.051615 0 -1 0
-0.18051 0.09059 -0.051615 0 -1 0
-0.1973 0.09059 -0.051615 0 -1 0
-0.21409 0.09059 -0.051615 0 -1 0
-0.23088 0.09059 -0.051615 0 -1 0
-0.24953 0.090573 -0.051615 0.018513 -0.99983 0
-0.27394 0.089518 -0.051615 0.094716 -0.9955 0
-0.3084 0.083546 -0.052236 0.27772 -0.96066 0
0.40049 0.019564 -0.042908 -0.87242 -0.48875 0
0.081226 0.081714 -0.054463 0.23695 -0.9711 0.028484
0.064096 0.077128 -0.054267 0.24035 -0.97032 0.02652
0.054615 0.074858 -0.053633 0.16726 -0.98571 0.020182
0.047172 0.074133 -0.053349 0.073779 -0.99712 0.01734
0.035909 0.073765 -0.053443 0.018513 -0.99966 0.018283
0.02097 0.073782 -0.053466 0 -0.99983 0.018512
0.00418 0.073782 -0.053466 0 -0.99983 0.018512
-0.012552 0.073781 -0.053519 -0.00058014 -0.99982 0.019043
-0.02758 0.073766 -0.053594 -0.017266 -0.99967 0.018858
-0.038546 0.074141 -0.053394 -0.073032 -0.9972 0.015933
-0.046186 0.074952 -0.053409 -0.16324 -0.98643 0.017676
-0.056578 0.077388 -0.053202 -0.22904 -0.97326 0.017211
-0.35246 0.063058 -0.054724 0.57526 -0.81797 0
-0.39213 0.019567 -0.060321 0.87241 -0.48878 0
0.41698 -0.042994 -0.051615 -1 9.2763e-006 0
-0.40862 -0.042994 -0.051615 1 9.2784e-006 0
0.40049 -0.10555 -0.060321 -0.87242 0.48876 0
-0.39213 -0.10555 -0.042908 0.8724 0.48879 0
0.36082 -0.14904 -0.054724 -0.57526 0.81797 0
0.31676 -0.16953 -0.052236 -0.27771 0.96066 0
0.28229 -0.1755 -0.051615 -0.094711 0.9955 0
0.25788 -0.17656 -0.051615 -0.018513 0.99983 0
0.23924 -0.17658 -0.051615 0 1 0
0.22245 -0.17658 -0.051615 0 1 0
0.20566 -0.17658 -0.051615 0 1 0
0.18887 -0.17658 -0.051615 0 1 0
0.17208 -0.17658 -0.051615 0 1 0
0.15529 -0.17658 -0.051615 0 1 0
0.1385 -0.17658 -0.051615 0 1 0
0.12171 -0.17658 -0.051615 0 1 0
0.10492 -0.17658 -0.051615 0 1 0
0.088131 -0.17658 -0.051615 0 1 0
0.071341 -0.17658 -0.051615 0 1 0
0.05455 -0.17658 -0.051615 0 1 0
0.03776 -0.17658 -0.051615 0 1 0
0.02097 -0.17658 -0.051615 0 1 0
0.00418 -0.17658 -0.051615 0 1 0
-0.01261 -0.17658 -0.051615 0 1 0
-0.029401 -0.17658 -0.051615 0 1 0
-0.046191 -0.17658 -0.051615 0 1 0
-0.062981 -0.17658 -0.051615 0 1 0
-0.079771 -0.17658 -0.051615 0 1 0
-0.096562 -0.17658 -0.051615 0 1 0
-0.11335 -0.17658 -0.051615 0 1 0
-0.13014 -0.17658 -0.051615 0 1 0
-0.14693 -0.17658 -0.051615 0 1 0
-0.16372 -0.17658 -0.051615 0 1 0
-0.18051 -0.17658 -0.051615 0 1 0
-0.1973 -0.17658 -0.051615 0 1 0
-0.21409 -0.17658 -0.051615 0 1 0
-0.23088 -0.17658 -0.051615 0 1 0
-0.24953 -0.17656 -0.051615 0.018513 0.99983 0
-0.27394 -0.1755 -0.051615 0.094716 0.9955 0
-0.3084 -0.16953 -0.050993 0.27772 0.96066 0
-0.35246 -0.14904 -0.048505 0.57526 0.81797 0
0.36082 0.063058 -0.065295 -0.57526 -0.81797 0
0.31676 0.083546 -0.067783 -0.27771 -0.96066 0
0.28229 0.089518 -0.068405 -0.094711 -0.9955 0
0.25788 0.090573 -0.068405 -0.018513 -0.99983 0
0.23924 0.09059 -0.068405 0 -1 0
0.22245 0.09059 -0.068405 0 -1 0
0.20566 0.09059 -0.068405 0 -1 0
0.18887 0.09059 -0.068405 0 -1 0
0.17208 0.09059 -0.068405 0 -1 0
0.15352 0.090574 -0.068481 0.017749 -0.99984 0.00076393
0.13128 0.089706 -0.068788 0.07226 -0.99738 0.0038252
0.10532 0.086747 -0.069087 0.16393 -0.98645 0.0068238
-0.073197 0.081603 -0.068478 -0.23364 -0.97232 0.0007271
-0.09696 0.086749 -0.068405 -0.16392 -0.98647 0
-0.12276 0.089695 -0.068405 -0.073789 -0.99727 0
-0.14508 0.090573 -0.068405 -0.018513 -0.99983 0
-0.16372 0.09059 -0.068405 0 -1 0
-0.18051 0.09059 -0.068405 0 -1 0
-0.1973 0.09059 -0.068405 0 -1 0
-0.21409 0.09059 -0.068405 0 -1 0
-0.23088 0.09059 -0.068405 0 -1 0
-0.24953 0.090573 -0.068405 0.018513 -0.99983 0
-0.27394 0.089518 -0.068405 0.094716 -0.9955 0
-0.3084 0.083546 -0.069027 0.27772 -0.96066 0
0.40049 0.019564 -0.059699 -0.87242 -0.48875 0
0.081384 0.08156 -0.068929 0.23537 -0.97189 0.0052417
0.064661 0.077225 -0.068555 0.2347 -0.97207 0.0015048
0.054948 0.074934 -0.068405 0.16393 -0.98647 0
0.047171 0.074148 -0.068405 0.073786 -0.99727 0
0.035909 0.073782 -0.068405 0.018513 -0.99983 0
0.02097 0.073799 -0.068405 0 -1 0
0.00418 0.073799 -0.068405 0 -1 0
-0.01261 0.073799 -0.068405 0 -1 0
-0.02754 0.073782 -0.068421 -0.018606 -0.99983 0.00016237
-0.038777 0.074146 -0.06853 -0.074143 -0.99725 0.001249
-0.046606 0.074937 -0.068705 -0.16375 -0.9865 0.0030036
-0.056444 0.077259 -0.068659 -0.23327 -0.97241 0.0025371
-0.35246 0.063058 -0.071514 0.57526 -0.81797 0
-0.39213 0.019567 -0.077111 0.87241 -0.48878 0
0.41698 -0.042994 -0.068405 -1 9.2763e-006 0
-0.40862 -0.042994 -0.068405 1 9.2784e-006 0
0.40049 -0.10555 -0.077111 -0.87242 0.48876 0
-0.39213 -0.10555 -0.059699 0.8724 0.48879 0
0.36082 -0.14904 -0.071514 -0.57526 0.81797 0
0.31676 -0.16953 -0.069027 -0.27771 0.96066 0
0.28229 -0.1755 -0.068405 -0.094711 0.9955 0
0.25788 -0.17656 -0.068405 -0.018513 0.99983 0
0.23924 -0.17658 -0.068405 0 1 0
0.22245 -0.17658 -0.068405 0 1 0
0.20566 -0.17658 -0.068405 0 1 0
0.18887 -0.17658 -0.068405 0 1 0
0.17208 -0.17658 -0.068405 0 1 0
0.15529 -0.17658 -0.068405 0 1 0
0.1385 -0.17658 -0.068405 0 1 0
0.12171 -0.17658 -0.068405 0 1 0
0.10492 -0.17658 -0.068405 0 1 0
0.088131 -0.17658 -0.068405 0 1 0
0.071341 -0.17658 -0.068405 0 1 0
0.05455 -0.17658 -0.068405 0 1 0
0.03776 -0.17658 -0.068405 0 1 0
0.02097 -0.17658 -0.068405 0 1 0
0.00418 -0.17658 -0.068405 0 1 0
-0.01261 -0.17658 -0.068405 0 1 0
-0.029401 -0.17658 -0.068405 0 1 0
-0.046191 -0.17658 -0.068405 0 1 0
-0.062981 -0.17658 -0.068405 0 1 0
-0.079771 -0.17658 -0.068405 0 1 0
-0.096562 -0.17658 -0.068405 0 1 0
-0.11335 -0.17658 -0.068405 0 1 0
-0.13014 -0.17658 -0.068405 0 1 0
-0.14693 -0.17658 -0.068405 0 1 0
-0.16372 -0.17658 -0.068405 0 1 0
-0.18051 -0.17658 -0.068405 0 1 0
-0.1973 -0.17658 -0.068405 0 1 0
-0.21409 -0.17658 -0.068405 0 1 0
-0.23088 -0.17658 -0.068405 0 1 0
-0.24953 -0.17656 -0.068405 0.018513 0.99983 0
-0.27394 -0.1755 -0.068405 0.094716 0.9955 0
-0.3084 -0.16953 -0.067783 0.27772 0.96066 0
-0.35246 -0.14904 -0.065295 0.57526 0.81797 0
0.36082 0.063058 -0.082086 -0.57526 -0.81797 0
0.31676 0.083546 -0.084573 -0.27771 -0.96066 0
0.28229 0.089518 -0.085195 -0.094711 -0.9955 0
0.25788 0.090573 -0.085195 -0.018513 -0.99983 0
0.23924 0.09059 -0.085195 0 -1 0
0.22245 0.09059 -0.085195 0 -1 0
0.20566 0.09059 -0.085195 0 -1 0
0.18887 0.09059 -0.085195 0 -1 0
0.17208 0.09059 -0.085195 0 -1 0
0.15344 0.090573 -0.085195 0.018512 -0.99983 0
0.13112 0.089695 -0.085195 0.073788 -0.99727 0
0.10532 0.086749 -0.085195 0.16393 -0.98647 0
-0.073164 0.081595 -0.085195 -0.23397 -0.97224 0
-0.09696 0.086749 -0.085195 -0.16392 -0.98647 0
-0.12276 0.089695 -0.085195 -0.073789 -0.99727 0
-0.14508 0.090573 -0.085195 -0.018513 -0.99983 0
-0.16372 0.09059 -0.085195 0 -1 0
-0.18051 0.09059 -0.085195 0 -1 0
-0.1973 0.09059 -0.085195 0 -1 0
-0.21409 0.09059 -0.085195 0 -1 0
-0.23088 0.09059 -0.085195 0 -1 0
-0.24953 0.090573 -0.085195 0.018513 -0.99983 0
-0.27394 0.089518 -0.085195 0.094716 -0.9955 0
-0.3084 0.083546 -0.085817 0.27772 -0.96066 0
0.40049 0.019564 -0.076489 -0.87242 -0.48875 0
0.081523 0.081595 -0.085195 0.23398 -0.97224 0
0.064733 0.077242 -0.085195 0.23398 -0.97224 0
0.054948 0.074934 -0.085195 0.16393 -0.98647 0
0.047171 0.074148 -0.085195 0.073786 -0.99727 0
0.035909 0.073782 -0.085195 0.018513 -0.99983 0
0.02097 0.073799 -0.085195 0 -1 0
0.00418 0.073799 -0.085195 0 -1 0
-0.01261 0.073799 -0.085195 0 -1 0
-0.02755 0.073782 -0.085195 -0.018513 -0.99983 0
-0.038812 0.074148 -0.085195 -0.073789 -0.99727 0
-0.046588 0.074934 -0.085195 -0.16393 -0.98647 0
-0.056373 0.077242 -0.085195 -0.23398 -0.97224 0
-0.35246 0.063058 -0.088304 0.57526 -0.81797 0
-0.39213 0.019567 -0.093901 0.87241 -0.48878 0
0.41698 -0.042994 -0.085195 -1 9.2763e-006 0
-0.40862 -0.042994 -0.085195 1 9.2784e-006 0
0.40049 -0.10555 -0.093901 -0.87242 0.48876 0
-0.39213 -0.10555 -0.076489 0.8724 0.48879 0
0.36082 -0.14904 -0.088304 -0.57526 0.81797 0
0.31676 -0.16953 -0.085817 -0.27771 0.96066 0
0.28229 -0.1755 -0.085195 -0.094711 0.9955 0
0.25788 -0.17656 -0.085195 -0.018513 0.99983 0
0.23924 -0.17658 -0.085195 0 1 0
0.22245 -0.17658 -0.085195 0 1 0
0.20566 -0.17658 -0.085195 0 1 0
0.18887 -0.17658 -0.085195 0 1 0
0.17208 -0.17658 -0.085195 0 1 0
0.15529 -0.17658 -0.085195 0 1 0
0.1385 -0.17658 -0.085195 0 1 0
0.12171 -0.17658 -0.085195 0 1 0
0.10492 -0.17658 -0.085195 0 1 0
0.088131 -0.17658 -0.085195 0 1 0
0.071341 -0.17658 -0.085195 0 1 0
0.05455 -0.17658 -0.085195 0 1 0
0.03776 -0.17658 -0.085195 0 1 0
0.02097 -0.17658 -0.085195 0 1 0
0.00418 -0.17658 -0.085195 0 1 0
-0.01261 -0.17658 -0.085195 0 1 0
-0.029401 -0.17658 -0.085195 0 1 0
-0.046191 -0.17658 -0.085195 0 1 0
-0.062981 -0.17658 -0.085195 0 1 0
-0.079771 -0.17658 -0.085195 0 1 0
-0.096562 -0.17658 -0.085195 0 1 0
-0.11335 -0.17658 -0.085195 0 1 0
-0.13014 -0.17658 -0.085195 0 1 0
-0.14693 -0.17658 -0.085195 0 1 0
-0.16372 -0.17658 -0.085195 0 1 0
-0.18051 -0.17658 -0.085195 0 1 0
-0.1973 -0.17658 -0.085195 0 1 0
-0.21409 -0.17658 -0.085195 0 1 0
-0.23088 -0.17658 -0.085195 0 1 0
-0.24953 -0.17656 -0.085195 0.018513 0.99983 0
-0.27394 -0.1755 -0.085195 0.094716 0.9955 0
-0.3084 -0.16953 -0.084573 0.27772 0.96066 0
-0.35246 -0.14904 -0.082086 0.57526 0.81797 0
0.36082 0.063058 -0.098876 -0.57526 -0.81797 0
0.31676 0.083546 -0.10136 -0.27771 -0.96066 0
0.28229 0.089518 -0.10199 -0.094711 -0.9955 0
0.25788 0.090573 -0.10199 -0.018513 -0.99983 0
0.23924 0.09059 -0.10199 0 -1 0
0.22245 0.09059 -0.10199 0 -1 0
0.20566 0.09059 -0.10199 0 -1 0
0.18887 0.09059 -0.10199 0 -1 0
0.17208 0.09059 -0.10199 0 -1 0
0.15344 0.090573 -0.10199 0.018512 -0.99983 0
0.13112 0.089695 -0.10199 0.073788 -0.99727 0
0.10532 0.086749 -0.10199 0.16393 -0.98647 0
-0.073164 0.081595 -0.10199 -0.23397 -0.97224 0
-0.09696 0.086749 -0.10199 -0.16392 -0.98647 0
-0.12276 0.089695 -0.10199 -0.073789 -0.99727 0
-0.14508 0.090573 -0.10199 -0.018513 -0.99983 0
-0.16372 0.09059 -0.10199 0 -1 0
-0.18051 0.09059 -0.10199 0 -1 0
-0.1973 0.09059 -0.10199 0 -1 0
-0.21409 0.09059 -0.10199 0 -1 0
-0.23088 0.09059 -0.10199 0 -1 0
-0.24953 0.090573 -0.10199 0.018513 -0.99983 0
-0.27394 0.089518 -0.10199 0.094716 -0.9955 0
-0.3084 0.083546 -0.10261 0.27772 -0.96066 0
0.40049 0.019564 -0.093279 -0.87242 -0.48875 0
0.081523 0.081595 -0.10199 0.23398 -0.97224 0
0.064733 0.077242 -0.10199 0.23398 -0.97224 0
0.054948 0.074934 -0.10199 0.16393 -0.98647 0
0.047171 0.074148 -0.10199 0.073786 -0.99727 0
0.035909 0.073782 -0.10199 0.018513 -0.99983 0
0.02097 0.073799 -0.10199 0 -1 0
0.00418 0.073799 -0.10199 0 -1 0
-0.01261 0.073799 -0.10199 0 -1 0
-0.02755 0.073782 -0.10199 -0.018513 -0.99983 0
-0.038812 0.074148 -0.10199 -0.073789 -0.99727 0
-0.046588 0.074934 -0.10199 -0.16393 -0.98647 0
-0.056373 0.077242 -0.10199 -0.23398 -0.97224 0
-0.35246 0.063058 -0.10509 0.57526 -0.81797 0
-0.39213 0.019567 -0.11069 0.87241 -0.48878 0
0.41698 -0.042994 -0.10199 -1 9.2763e-006 0
-0.40862 -0.042994 -0.10199 1 9.2784e-006 0
0.40049 -0.10555 -0.11069 -0.87242 0.48876 0
-0.39213 -0.10555 -0.093279 0.8724 0.48879 0
0.36082 -0.14904 -0.10509 -0.57526 0.81797 0
0.31676 -0.16953 -0.10261 -0.27771 0.96066 0
0.28229 -0.1755 -0.10199 -0.094711 0.9955 0
0.25788 -0.17656 -0.10199 -0.018513 0.99983 0
0.23924 -0.17658 -0.10199 0 1 0
0.22245 -0.17658 -0.10199 0 1 0
0.20566 -0.17658 -0.10199 0 1 0
0.18887 -0.17658 -0.10199 0 1 0
0.17208 -0.17658 -0.10199 0 1 0
0.15529 -0.17658 -0.10199 0 1 0
0.1385 -0.17658 -0.10199 0 1 0
0.12171 -0.17658 -0.10199 0 1 0
0.10492 -0.17658 -0.10199 0 1 0
0.088131 -0.17658 -0.10199 0 1 0
0.071341 -0.17658 -0.10199 0 1 0
0.05455 -0.17658 -0.10199 0 1 0
0.03776 -0.17658 -0.10199 0 1 0
0.02097 -0.17658 -0.10199 0 1 0
0.00418 -0.17658 -0.10199 0 1 0
-0.01261 -0.17658 -0.10199 0 1 0
-0.029401 -0.17658 -0.10199 0 1 0
-0.046191 -0.17658 -0.10199 0 1 0
-0.062981 -0.17658 -0.10199 0 1 0
-0.079771 -0.17658 -0.10199 0 1 0
-0.096562 -0.17658 -0.10199 0 1 0
-0.11335 -0.17658 -0.10199 0 1 0
-0.13014 -0.17658 -0.10199 0 1 0
-0.14693 -0.17658 -0.10199 0 1 0
-0.16372 -0.17658 -0.10199 0 1 0
-0.18051 -0.17658 -0.10199 0 1 0
-0.1973 -0.17658 -0.10199 0 1 0
-0.21409 -0.17658 -0.10199 0 1 0
-0.23088 -0.17658 -0.10199 0 1 0
-0.24953 -0.17656 -0.10199 0.018513 0.99983 0
-0.27394 -0.1755 -0.10199 0.094716 0.9955 0
-0.3084 -0.16953 -0.10136 0.27772 0.96066 0
-0.35246 -0.14904 -0.098876 0.57526 0.81797 0
0.36082 0.063058 -0.11567 -0.57526 -0.81797 0
0.31676 0.083546 -0.11815 -0.27771 -0.96066 0
0.28229 0.089518 -0.11878 -0.094711 -0.9955 0
0.25788 0.090573 -0.11878 -0.018513 -0.99983 0
0.23924 0.09059 -0.11878 0 -1 0
0.22245 0.09059 -0.11878 0 -1 0
0.20566 0.09059 -0.11878 0 -1 0
0.18887 0.09059 -0.11878 0 -1 0
0.17208 0.09059 -0.11878 0 -1 0
0.15344 0.090573 -0.11878 0.018512 -0.99983 0
0.13112 0.089695 -0.11878 0.073788 -0.99727 0
0.10532 0.086749 -0.11878 0.16393 -0.98647 0
-0.073024 0.08156 -0.11825 -0.23537 -0.97189 -0.0052414
-0.09696 0.086747 -0.11809 -0.16392 -0.98645 -0.0068234
-0.12292 0.089706 -0.11839 -0.072261 -0.99738 -0.0038249
-0.14516 0.090574 -0.1187 -0.01775 -0.99984 -0.00076389
-0.16372 0.09059 -0.11878 0 -1 0
-0.18051 0.09059 -0.11878 0 -1 0
-0.1973 0.09059 -0.11878 0 -1 0
-0.21409 0.09059 -0.11878 0 -1 0
-0.23088 0.09059 -0.11878 0 -1 0
-0.24953 0.090573 -0.11878 0.018513 -0.99983 0
-0.27394 0.089518 -0.11878 0.094716 -0.9955 0
-0.3084 0.083546 -0.1194 0.27772 -0.96066 0
0.40049 0.019564 -0.11007 -0.87242 -0.48875 0
0.081557 0.081603 -0.1187 0.23364 -0.97232 -0.00073171
0.064804 0.077259 -0.11852 0.23327 -0.97241 -0.0025396
0.054967 0.074937 -0.11847 0.16374 -0.9865 -0.0030036
0.047136 0.074146 -0.11865 0.07414 -0.99725 -0.001249
0.035899 0.073782 -0.11876 0.018606 -0.99983 -0.000162
0.02097 0.073799 -0.11878 0 -1 0
0.00418 0.073799 -0.11878 0 -1 0
-0.01261 0.073799 -0.11878 0 -1 0
-0.02755 0.073782 -0.11878 -0.018513 -0.99983 0
-0.038812 0.074148 -0.11878 -0.073789 -0.99727 0
-0.046588 0.074934 -0.11878 -0.16393 -0.98647 0
-0.056301 0.077225 -0.11862 -0.2347 -0.97207 -0.0015047
-0.35246 0.063058 -0.12188 0.57526 -0.81797 0
-0.39213 0.019567 -0.12748 0.87241 -0.48878 0
0.41698 -0.042994 -0.11878 -1 9.2763e-006 0
-0.40862 -0.042994 -0.11878 1 9.2784e-006 0
0.40049 -0.10555 -0.12748 -0.87242 0.48876 0
-0.39213 -0.10555 -0.11007 0.8724 0.48879 0
0.36082 -0.14904 -0.12188 -0.57526 0.81797 0
0.31676 -0.16953 -0.1194 -0.27771 0.96066 0
0.28229 -0.1755 -0.11878 -0.094711 0.9955 0
0.25788 -0.17656 -0.11878 -0.018513 0.99983 0
0.23924 -0.17658 -0.11878 0 1 0
0.22245 -0.17658 -0.11878 0 1 0
0.20566 -0.17658 -0.11878 0 1 0
0.18887 -0.17658 -0.11878 0 1 0
0.17208 -0.17658 -0.11878 0 1 0
0.15529 -0.17658 -0.11878 0 1 0
0.1385 -0.17658 -0.11878 0 1 0
0.12171 -0.17658 -0.11878 0 1 0
0.10492 -0.17658 -0.11878 0 1 0
0.088131 -0.17658 -0.11878 0 1 0
0.071341 -0.17658 -0.11878 0 1 0
0.05455 -0.17658 -0.11878 0 1 0
0.03776 -0.17658 -0.11878 0 1 0
0.02097 -0.17658 -0.11878 0 1 0
0.00418 -0.17658 -0.11878 0 1 0
-0.01261 -0.17658 -0.11878 0 1 0
-0.029401 -0.17658 -0.11878 0 1 0
-0.046191 -0.17658 -0.11878 0 1 0
-0.062981 -0.17658 -0.11878 0 1 0
-0.079771 -0.17658 -0.11878 0 1 0
-0.096562 -0.17658 -0.11878 0 1 0
-0.11335 -0.17658 -0.11878 0 1 0
-0.13014 -0.17658 -0.11878 0 1 0
-0.14693 -0.17658 -0.11878 0 1 0
-0.16372 -0.17658 -0.11878 0 1 0
-0.18051 -0.17658 -0.11878 0 1 0
-0.1973 -0.17658 -0.11878 0 1 0
-0.21409 -0.17658 -0.11878 0 1 0
-0.23088 -0.17658 -0.11878 0 1 0
-0.24953 -0.17656 -0.11878 0.018513 0.99983 0
-0.27394 -0.1755 -0.11878 0.094716 0.9955 0
-0.3084 -0.16953 -0.11815 0.27772 0.96066 0
-0.35246 -0.14904 -0.11567 0.57526 0.81797 0
0.36082 0.063058 -0.13246 -0.57526 -0.81797 0
0.31676 0.083546 -0.13494 -0.27771 -0.96066 0
0.28229 0.089518 -0.13557 -0.094711 -0.9955 0
0.25788 0.090573 -0.13557 -0.018513 -0.99983 0
0.23924 0.09059 -0.13557 0 -1 0
0.22245 0.09059 -0.13557 0 -1 0
0.20566 0.09059 -0.13557 0 -1 0
0.18887 0.09059 -0.13557 0 -1 0
0.17208 0.09059 -0.13557 0 -1 0
0.15344 0.090573 -0.13557 0.018512 -0.99983 0
0.13112 0.089695 -0.13557 0.073788 -0.99727 0
0.10544 0.08677 -0.1354 0.16269 -0.98668 -0.0016329
-0.072867 0.081715 -0.13272 -0.23694 -0.97111 -0.02848
-0.097426 0.087032 -0.13327 -0.15926 -0.98697 -0.022917
-0.12368 0.089829 -0.13441 -0.064632 -0.99784 -0.011536
-0.14554 0.09058 -0.13533 -0.013902 -0.9999 -0.0023216
-0.16372 0.09059 -0.13557 0 -1 0
-0.18051 0.09059 -0.13557 0 -1 0
-0.1973 0.09059 -0.13557 0 -1 0
-0.21409 0.09059 -0.13557 0 -1 0
-0.23088 0.09059 -0.13557 0 -1 0
-0.24953 0.090573 -0.13557 0.018513 -0.99983 0
-0.27394 0.089518 -0.13557 0.094716 -0.9955 0
-0.3084 0.083546 -0.13619 0.27772 -0.96066 0
0.40049 0.019564 -0.12686 -0.87242 -0.48875 0
0.081902 0.08172 -0.13479 0.22952 -0.97327 -0.0084688
0.064937 0.077388 -0.13398 0.22905 -0.97326 -0.017212
0.054546 0.074952 -0.13377 0.16324 -0.98643 -0.017679
0.046905 0.074141 -0.13379 0.073031 -0.9972 -0.015933
0.03594 0.073766 -0.13359 0.017267 -0.99967 -0.018858
0.020912 0.073781 -0.13366 0.00058051 -0.99982 -0.019044
0.00418 0.073782 -0.13371 0 -0.99983 -0.018513
-0.01261 0.073782 -0.13371 0 -0.99983 -0.018513
-0.02755 0.073765 -0.13374 -0.018513 -0.99966 -0.018284
-0.038813 0.074133 -0.13383 -0.073782 -0.99712 -0.017341
-0.046255 0.074858 -0.13355 -0.16726 -0.98571 -0.02018
-0.055736 0.077128 -0.13291 -0.24035 -0.97032 -0.026519
-0.35246 0.063058 -0.13867 0.57526 -0.81797 0
-0.39213 0.019567 -0.14427 0.87241 -0.48878 0
0.41698 -0.042994 -0.13557 -1 9.2763e-006 0
-0.40862 -0.042994 -0.13557 1 9.2784e-006 0
0.40049 -0.10555 -0.14427 -0.87242 0.48876 0
-0.39213 -0.10555 -0.12686 0.8724 0.48879 0
0.36082 -0.14904 -0.13867 -0.57526 0.81797 0
0.31676 -0.16953 -0.13619 -0.27771 0.96066 0
0.28229 -0.1755 -0.13557 -0.094711 0.9955 0
0.25788 -0.17656 -0.13557 -0.018513 0.99983 0
0.23924 -0.17658 -0.13557 0 1 0
0.22245 -0.17658 -0.13557 0 1 0
0.20566 -0.17658 -0.13557 0 1 0
0.18887 -0.17658 -0.13557 0 1 0
0.17208 -0.17658 -0.13557 0 1 0
0.15529 -0.17658 -0.13557 0 1 0
0.1385 -0.17658 -0.13557 0 1 0
0.12171 -0.17658 -0.13557 0 1 0
0.10492 -0.17658 -0.13557 0 1 0
0.088131 -0.17658 -0.13557 0 1 0
0.071341 -0.17658 -0.13557 0 1 0
0.05455 -0.17658 -0.13557 0 1 0
0.03776 -0.17658 -0.13557 0 1 0
0.02097 -0.17658 -0.13557 0 1 0
0.00418 -0.17658 -0.13557 0 1 0
-0.01261 -0.17658 -0.13557 0 1 0
-0.029401 -0.17658 -0.13557 0 1 0
-0.046191 -0.17658 -0.13557 0 1 0
-0.062981 -0.17658 -0.13557 0 1 0
-0.079771 -0.17658 -0.13557 0 1 0
-0.096562 -0.17658 -0.13557 0 1 0
-0.11335 -0.17658 -0.13557 0 1 0
-0.13014 -0.17658 -0.13557 0 1 0
-0.14693 -0.17658 -0.13557 0 1 0
-0.16372 -0.17658 -0.13557 0 1 0
-0.18051 -0.17658 -0.13557 0 1 0
-0.1973 -0.17658 -0.13557 0 1 0
-0.21409 -0.17658 -0.13557 0 1 0
-0.23088 -0.17658 -0.13557 0 1 0
-0.24953 -0.17656 -0.13557 0.018513 0.99983 0
-0.27394 -0.1755 -0.13557 0.094716 0.9955 0
-0.3084 -0.16953 -0.13494 0.27772 0.96066 0
-0.35246 -0.14904 -0.13246 0.57526 0.81797 0
0.36082 0.063058 -0.14925 -0.57526 -0.81797 0
0.31676 0.083546 -0.15173 -0.27771 -0.96066 0
0.28229 0.089518 -0.15236 -0.094711 -0.9955 0
0.25788 0.090573 -0.15236 -0.018513 -0.99983 0
0.23924 0.09059 -0.15236 0 -1 0
0.22245 0.09059 -0.15236 0 -1 0
0.20566 0.09059 -0.15236 0 -1 0
0.18887 0.09059 -0.15236 0 -1 0
0.17208 0.09059 -0.15236 0 -1 0
0.15344 0.090573 -0.15236 0.018512 -0.99983 0
0.13126 0.089705 -0.15225 0.072414 -0.99737 -0.0010985
0.10615 0.086943 -0.15138 0.15427 -0.98797 -0.011078
-0.07382 0.082421 -0.14499 -0.22835 -0.97086 -0.072738
-0.09954 0.087823 -0.14796 -0.13812 -0.98944 -0.043971
-0.12529 0.090148 -0.15074 -0.048533 -0.99869 -0.016183
-0.14624 0.090587 -0.15212 -0.0069476 -0.99997 -0.0023124
-0.16372 0.09059 -0.15236 0 -1 0
-0.18051 0.09059 -0.15236 0 -1 0
-0.1973 0.09059 -0.15236 0 -1 0
-0.21409 0.09059 -0.15236 0 -1 0
-0.23088 0.09059 -0.15236 0 -1 0
-0.24953 0.090573 -0.15236 0.018513 -0.99983 0
-0.27394 0.089518 -0.15236 0.094716 -0.9955 0
-0.3084 0.083546 -0.15298 0.27772 -0.96066 0
0.40049 0.019564 -0.14365 -0.87242 -0.48875 0
0.082916 0.082198 -0.14934 0.2132 -0.97631 -0.036857
0.064728 0.077731 -0.14676 0.21599 -0.9745 -0.060808
0.05365 0.075105 -0.14528 0.15456 -0.98592 -0.06384
0.047105 0.074475 -0.14463 0.060553 -0.99583 -0.068296
0.035531 0.074165 -0.1445 0.015103 -0.99699 -0.076041
0.020108 0.074144 -0.14492 0.0024 -0.99723 -0.074406
0.003558 0.074148 -0.14498 0 -0.99727 -0.073789
-0.013232 0.074148 -0.14498 0 -0.99727 -0.073789
-0.028175 0.07414 -0.14509 -0.018483 -0.99719 -0.07265
-0.03887 0.074453 -0.14497 -0.079432 -0.9941 -0.073848
-0.046088 0.075283 -0.14488 -0.17453 -0.98188 -0.073799
-0.05554 0.077634 -0.14439 -0.24573 -0.96621 -0.077831
-0.35246 0.063058 -0.15546 0.57526 -0.81797 0
-0.39213 0.019567 -0.16106 0.87241 -0.48878 0
0.41698 -0.042994 -0.15236 -1 9.2763e-006 0
-0.40862 -0.042994 -0.15236 1 9.2784e-006 0
0.40049 -0.10555 -0.16106 -0.87242 0.48876 0
-0.39213 -0.10555 -0.14365 0.8724 0.48879 0
0.36082 -0.14904 -0.15546 -0.57526 0.81797 0
0.31676 -0.16953 -0.15298 -0.27771 0.96066 0
0.28229 -0.1755 -0.15236 -0.094711 0.9955 0
0.25788 -0.17656 -0.15236 -0.018513 0.99983 0
0.23924 -0.17658 -0.15236 0 1 0
0.22245 -0.17658 -0.15236 0 1 0
0.20566 -0.17658 -0.15236 0 1 0
0.18887 -0.17658 -0.15236 0 1 0
0.17208 -0.17658 -0.15236 0 1 0
0.15529 -0.17658 -0.15236 0 1 0
0.1385 -0.17658 -0.15236 0 1 0
0.12171 -0.17658 -0.15236 0 1 0
0.10492 -0.17658 -0.15236 0 1 0
0.088131 -0.17658 -0.15236 0 1 0
0.071341 -0.17658 -0.15236 0 1 0
0.05455 -0.17658 -0.15236 0 1 0
0.03776 -0.17658 -0.15236 0 1 0
0.02097 -0.17658 -0.15236 0 1 0
0.00418 -0.17658 -0.15236 0 1 0
-0.01261 -0.17658 -0.15236 0 1 0
-0.029401 -0.17658 -0.15236 0 1 0
-0.046191 -0.17658 -0.15236 0 1 0
-0.062981 -0.17658 -0.15236 0 1 0
-0.079771 -0.17658 -0.15236 0 1 0
-0.096562 -0.17658 -0.15236 0 1 0
-0.11335 -0.17658 -0.15236 0 1 0
-0.13014 -0.17658 -0.15236 0 1 0
-0.14693 -0.17658 -0.15236 0 1 0
-0.16372 -0.17658 -0.15236 0 1 0
-0.18051 -0.17658 -0.15236 0 1 0
-0.1973 -0.17658 -0.15236 0 1 0
-0.21409 -0.17658 -0.15236 0 1 0
-0.23088 -0.17658 -0.15236 0 1 0
-0.24953 -0.17656 -0.15236 0.018513 0.99983 0
-0.27394 -0.1755 -0.15236 0.094716 0.9955 0
-0.3084 -0.16953 -0.15173 0.27772 0.96066 0
-0.35246 -0.14904 -0.14925 0.57526 0.81797 0
0.36082 0.063058 -0.16604 -0.57526 -0.81797 0
0.31676 0.083546 -0.16852 -0.27771 -0.96066 0
0.28229 0.089518 -0.16915 -0.094711 -0.9955 0
0.25788 0.090573 -0.16915 -0.018513 -0.99983 0
0.23924 0.09059 -0.16915 0 -1 0
0.22245 0.09059 -0.16915 0 -1 0
0.20566 0.09059 -0.16915 0 -1 0
0.18887 0.09059 -0.16915 0 -1 0
0.17208 0.09059 -0.16915 0 -1 0
0.15349 0.090574 -0.16912 0.018031 -0.99984 -0.00024063
0.13205 0.089783 -0.1685 0.063859 -0.99793 -0.0071694
0.10851 0.087586 -0.16674 0.12762 -0.99132 -0.031685
-0.077495 0.084681 -0.15843 -0.19186 -0.97583 -0.10459
-0.10396 0.08902 -0.16431 -0.093922 -0.99441 -0.048332
-0.12752 0.090469 -0.16784 -0.026215 -0.99957 -0.013106
-0.14678 0.09059 -0.16907 -0.0015485 -1 -0.00077426
-0.16372 0.09059 -0.16915 0 -1 0
-0.18051 0.09059 -0.16915 0 -1 0
-0.1973 0.09059 -0.16915 0 -1 0
-0.21409 0.09059 -0.16915 0 -1 0
-0.23088 0.09059 -0.16915 0 -1 0
-0.24953 0.090573 -0.16915 0.018513 -0.99983 0
-0.27394 0.089518 -0.16915 0.094716 -0.9955 0
-0.3084 0.083546 -0.16977 0.27772 -0.96066 0
0.40049 0.019564 -0.16044 -0.87242 -0.48875 0
0.085446 0.083639 -0.16358 0.1672 -0.98148 -0.093516
0.062703 0.078156 -0.15541 0.18161 -0.97372 -0.13744
0.078551 0.08405 -0.17556 0.12758 -0.98145 -0.1431
0.052987 0.075385 -0.15043 0.12388 -0.98178 -0.14408
0.046643 0.075134 -0.15135 0.054101 -0.98469 -0.16572
0.033696 0.074995 -0.15244 0.016611 -0.98619 -0.16479
0.01818 0.074937 -0.15277 0.0030341 -0.9865 -0.16371
0.001692 0.074934 -0.15275 0 -0.98647 -0.16393
-0.015098 0.074934 -0.15275 0 -0.98647 -0.16393
-0.029531 0.074897 -0.1527 -0.023569 -0.9861 -0.16449
-0.039893 0.075359 -0.15268 -0.0875 -0.98288 -0.16212
-0.046292 0.075972 -0.15251 -0.18719 -0.96963 -0.15743
-0.056807 0.079177 -0.15399 -0.23906 -0.96048 -0.1426
-0.061235 0.082445 -0.16758 -0.18909 -0.967 -0.17074
-0.35246 0.063058 -0.17225 0.57526 -0.81797 0
-0.39213 0.019567 -0.17785 0.87241 -0.48878 0
0.41698 -0.042994 -0.16915 -1 9.2763e-006 0
-0.40862 -0.042994 -0.16915 1 9.2784e-006 0
0.40049 -0.10555 -0.17785 -0.87242 0.48876 0
-0.39213 -0.10555 -0.16044 0.8724 0.48879 0
0.36082 -0.14904 -0.17225 -0.57526 0.81797 0
0.31676 -0.16953 -0.16977 -0.27771 0.96066 0
0.28229 -0.1755 -0.16915 -0.094711 0.9955 0
0.25788 -0.17656 -0.16915 -0.018513 0.99983 0
0.23924 -0.17658 -0.16915 0 1 0
0.22245 -0.17658 -0.16915 0 1 0
0.20566 -0.17658 -0.16915 0 1 0
0.18887 -0.17658 -0.16915 0 1 0
0.17208 -0.17658 -0.16915 0 1 0
0.15529 -0.17658 -0.16915 0 1 0
0.1385 -0.17658 -0.16915 0 1 0
0.12171 -0.17658 -0.16915 0 1 0
0.10492 -0.17658 -0.16915 0 1 0
0.088131 -0.17658 -0.16915 0 1 0
0.071341 -0.17658 -0.16915 0 1 0
0.05455 -0.17658 -0.16915 0 1 0
0.03776 -0.17658 -0.16915 0 1 0
0.02097 -0.17658 -0.16915 0 1 0
0.00418 -0.17658 -0.16915 0 1 0
-0.01261 -0.17658 -0.16915 0 1 0
-0.029401 -0.17658 -0.16915 0 1 0
-0.046191 -0.17658 -0.16915 0 1 0
-0.062981 -0.17658 -0.16915 0 1 0
-0.079771 -0.17658 -0.16915 0 1 0
-0.096562 -0.17658 -0.16915 0 1 0
-0.11335 -0.17658 -0.16915 0 1 0
-0.13014 -0.17658 -0.16915 0 1 0
-0.14693 -0.17658 -0.16915 0 1 0
-0.16372 -0.17658 -0.16915 0 1 0
-0.18051 -0.17658 -0.16915 0 1 0
-0.1973 -0.17658 -0.16915 0 1 0
-0.21409 -0.17658 -0.16915 0 1 0
-0.23088 -0.17658 -0.16915 0 1 0
-0.24953 -0.17656 -0.16915 0.018513 0.99983 0
-0.27394 -0.1755 -0.16915 0.094716 0.9955 0
-0.3084 -0.16953 -0.16852 0.27772 0.96066 0
-0.35246 -0.14904 -0.16604 0.57526 0.81797 0
0.36082 0.063058 -0.18283 -0.57526 -0.81797 0
0.31676 0.083546 -0.18531 -0.27771 -0.96066 0
0.28229 0.089518 -0.18594 -0.094711 -0.9955 0
0.25788 0.090573 -0.18594 -0.018513 -0.99983 0
0.23924 0.09059 -0.18594 0 -1 0
0.22245 0.09059 -0.18594 0 -1 0
0.20566 0.09059 -0.18594 0 -1 0
0.18887 0.09059 -0.18594 0 -1 0
0.17208 0.09059 -0.18594 0 -1 0
0.15386 0.09058 -0.18576 0.014328 -0.9999 -0.0017335
0.13398 0.090054 -0.18458 0.044833 -0.99887 -0.015808
0.11414 0.088757 -0.18205 0.077591 -0.99557 -0.053074
0.099144 0.087675 -0.18251 0.096416 -0.99153 -0.087066
-0.084185 0.08774 -0.17626 -0.12336 -0.98785 -0.094502
-0.10871 0.090121 -0.18276 -0.046445 -0.99842 -0.031723
-0.12945 0.090587 -0.18547 -0.0069473 -0.99997 -0.0046347
-0.14693 0.09059 -0.18594 0 -1 0
-0.16372 0.09059 -0.18594 0 -1 0
-0.18051 0.09059 -0.18594 0 -1 0
-0.1973 0.09059 -0.18594 0 -1 0
-0.21409 0.09059 -0.18594 0 -1 0
-0.23088 0.09059 -0.18594 0 -1 0
-0.24953 0.090573 -0.18594 0.018513 -0.99983 0
-0.27394 0.089518 -0.18594 0.094716 -0.9955 0
-0.3084 0.083546 -0.18656 0.27772 -0.96066 0
0.40049 0.019564 -0.17723 -0.87242 -0.48875 0
0.057572 0.078935 -0.16302 0.11002 -0.97307 -0.20256
0.070299 0.085325 -0.18841 0.090694 -0.98433 -0.15124
0.044203 0.077741 -0.16286 0.047228 -0.97338 -0.22426
0.055716 0.082925 -0.1825 0.059013 -0.97836 -0.19831
0.030294 0.077339 -0.16273 0.01336 -0.97277 -0.2314
0.041982 0.08198 -0.18023 0.021745 -0.97443 -0.22362
0.014636 0.077249 -0.16257 0.0011535 -0.97231 -0.23369
0.026753 0.081639 -0.17951 0.004359 -0.97268 -0.23211
-0.002039 0.077242 -0.16254 0 -0.97224 -0.23398
0.010398 0.081595 -0.17933 0 -0.97224 -0.23398
-0.018542 0.077213 -0.16242 -0.0028713 -0.97195 -0.23518
-0.0063192 0.081591 -0.17931 -0.00072803 -0.9722 -0.23417
-0.03225 0.077198 -0.16208 -0.034852 -0.97105 -0.23631
-0.022313 0.081573 -0.1791 -0.0095772 -0.9718 -0.23562
-0.042337 0.077632 -0.16145 -0.10446 -0.96706 -0.23211
-0.035797 0.081681 -0.17852 -0.049044 -0.97075 -0.23505
-0.048639 0.078302 -0.16029 -0.1891 -0.959 -0.21109
-0.049277 0.082785 -0.1784 -0.11694 -0.97096 -0.20874
-0.35246 0.063058 -0.18905 0.57526 -0.81797 0
-0.39213 0.019567 -0.19464 0.87241 -0.48878 0
0.41698 -0.042994 -0.18594 -1 9.2763e-006 0
-0.40862 -0.042994 -0.18594 1 9.2784e-006 0
0.40049 -0.10555 -0.19464 -0.87242 0.48876 0
-0.39213 -0.10555 -0.17723 0.8724 0.48879 0
0.36082 -0.14904 -0.18905 -0.57526 0.81797 0
0.31676 -0.16953 -0.18656 -0.27771 0.96066 0
0.28229 -0.1755 -0.18594 -0.094711 0.9955 0
0.25788 -0.17656 -0.18594 -0.018513 0.99983 0
0.23924 -0.17658 -0.18594 0 1 0
0.22245 -0.17658 -0.18594 0 1 0
0.20566 -0.17658 -0.18594 0 1 0
0.18887 -0.17658 -0.18594 0 1 0
0.17208 -0.17658 -0.18594 0 1 0
0.15529 -0.17658 -0.18594 0 1 0
0.1385 -0.17658 -0.18594 0 1 0
0.12171 -0.17658 -0.18594 0 1 0
0.10492 -0.17658 -0.18594 0 1 0
0.088131 -0.17658 -0.18594 0 1 0
0.071341 -0.17658 -0.18594 0 1 0
0.05455 -0.17658 -0.18594 0 1 0
0.03776 -0.17658 -0.18594 0 1 0
0.02097 -0.17658 -0.18594 0 1 0
0.00418 -0.17658 -0.18594 0 1 0
-0.01261 -0.17658 -0.18594 0 1 0
-0.029401 -0.17658 -0.18594 0 1 0
-0.046191 -0.17658 -0.18594 0 1 0
-0.062981 -0.17658 -0.18594 0 1 0
-0.079771 -0.17658 -0.18594 0 1 0
-0.096562 -0.17658 -0.18594 0 1 0
-0.11335 -0.17658 -0.18594 0 1 0
-0.13014 -0.17658 -0.18594 0 1 0
-0.14693 -0.17658 -0.18594 0 1 0
-0.16372 -0.17658 -0.18594 0 1 0
-0.18051 -0.17658 -0.18594 0 1 0
-0.1973 -0.17658 -0.18594 0 1 0
-0.21409 -0.17658 -0.18594 0 1 0
-0.23088 -0.17658 -0.18594 0 1 0
-0.24953 -0.17656 -0.18594 0.018513 0.99983 0
-0.27394 -0.1755 -0.18594 0.094716 0.9955 0
-0.3084 -0.16953 -0.18531 0.27772 0.96066 0
-0.35246 -0.14904 -0.18283 0.57526 0.81797 0
0.36082 0.063058 -0.19962 -0.57526 -0.81797 0
0.31676 0.083546 -0.20211 -0.27771 -0.96066 0
0.28229 0.089518 -0.20273 -0.094711 -0.9955 0
0.25788 0.090573 -0.20273 -0.018513 -0.99983 0
0.23924 0.09059 -0.20273 0 -1 0
0.22245 0.09059 -0.20273 0 -1 0
0.20566 0.09059 -0.20273 0 -1 0
0.18887 0.09059 -0.20273 0 -1 0
0.17208 0.09059 -0.20273 0 -1 0
0.1546 0.090587 -0.20244 0.0069102 -0.99997 -0.0028507
0.13637 0.090417 -0.20136 0.022542 -0.99961 -0.016207
0.11882 0.089863 -0.2001 0.037298 -0.9986 -0.037545
0.10074 0.088888 -0.19762 0.061945 -0.99547 -0.07212
0.087072 0.088095 -0.19729 0.070831 -0.99236 -0.10106
-0.068529 0.087355 -0.18961 -0.10882 -0.98629 -0.12407
-0.09125 0.089811 -0.19778 -0.05245 -0.99743 -0.048788
-0.11201 0.090575 -0.2016 -0.01337 -0.99985 -0.011309
-0.13014 0.09059 -0.20273 0 -1 0
-0.14693 0.09059 -0.20273 0 -1 0
-0.16372 0.09059 -0.20273 0 -1 0
-0.18051 0.09059 -0.20273 0 -1 0
-0.1973 0.09059 -0.20273 0 -1 0
-0.21409 0.09059 -0.20273 0 -1 0
-0.23088 0.09059 -0.20273 0 -1 0
-0.24953 0.090573 -0.20273 0.018513 -0.99983 0
-0.27394 0.089518 -0.20273 0.094716 -0.9955 0
-0.3084 0.083546 -0.20335 0.27772 -0.96066 0
0.40049 0.019564 -0.19402 -0.87242 -0.48875 0
-0.35246 0.063058 -0.20584 0.57526 -0.81797 0
-0.39213 0.019567 -0.21143 0.87241 -0.48878 0
0.41698 -0.042994 -0.20273 -1 9.2763e-006 0
-0.40862 -0.042994 -0.20273 1 9.2784e-006 0
0.40049 -0.10555 -0.21143 -0.87242 0.48876 0
-0.39213 -0.10555 -0.19402 0.8724 0.48879 0
0.36082 -0.14904 -0.20584 -0.57526 0.81797 0
0.31676 -0.16953 -0.20335 -0.27771 0.96066 0
0.28229 -0.1755 -0.20273 -0.094711 0.9955 0
0.25788 -0.17656 -0.20273 -0.018513 0.99983 0
0.23924 -0.17658 -0.20273 0 1 0
0.22245 -0.17658 -0.20273 0 1 0
0.20566 -0.17658 -0.20273 0 1 0
0.18887 -0.17658 -0.20273 0 1 0
0.17208 -0.17658 -0.20273 0 1 0
0.15529 -0.17658 -0.20273 0 1 0
0.1385 -0.17658 -0.20273 0 1 0
0.12171 -0.17658 -0.20273 0 1 0
0.10492 -0.17658 -0.20273 0 1 0
0.088131 -0.17658 -0.20273 0 1 0
0.071341 -0.17658 -0.20273 0 1 0
0.05455 -0.17658 -0.20273 0 1 0
0.03776 -0.17658 -0.20273 0 1 0
0.02097 -0.17658 -0.20273 0 1 0
0.00418 -0.17658 -0.20273 0 1 0
-0.01261 -0.17658 -0.20273 0 1 0
-0.029401 -0.17658 -0.20273 0 1 0
-0.046191 -0.17658 -0.20273 0 1 0
-0.062981 -0.17658 -0.20273 0 1 0
-0.079771 -0.17658 -0.20273 0 1 0
-0.096562 -0.17658 -0.20273 0 1 0
-0.11335 -0.17658 -0.20273 0 1 0
-0.13014 -0.17658 -0.20273 0 1 0
-0.14693 -0.17658 -0.20273 0 1 0
-0.16372 -0.17658 -0.20273 0 1 0
-0.18051 -0.17658 -0.20273 0 1 0
-0.1973 -0.17658 -0.20273 0 1 0
-0.21409 -0.17658 -0.20273 0 1 0
-0.23088 -0.17658 -0.20273 0 1 0
-0.24953 -0.17656 -0.20273 0.018513 0.99983 0
-0.27394 -0.1755 -0.20273 0.094716 0.9955 0
-0.3084 -0.16953 -0.20211 0.27772 0.96066 0
-0.35246 -0.14904 -0.19962 0.57526 0.81797 0
0.36082 0.063058 -0.21641 -0.57526 -0.81797 0
0.31676 0.083546 -0.2189 -0.27771 -0.96066 0
0.28229 0.089518 -0.21952 -0.094711 -0.9955 0
0.25788 0.090573 -0.21952 -0.018513 -0.99983 0
0.23924 0.09059 -0.21952 0 -1 0
0.22245 0.09059 -0.21952 0 -1 0
0.20566 0.09059 -0.21952 0 -1 0
0.18887 0.09059 -0.21952 0 -1 0
0.17208 0.09059 -0.21952 0 -1 0
0.15516 0.09059 -0.21938 0.0013471 -1 -0.0013429
0.13784 0.090584 -0.21887 0.0075934 -0.99994 -0.0074255
0.1204 0.090419 -0.21787 0.017461 -0.99963 -0.020884
0.10343 0.090015 -0.21674 0.028168 -0.9989 -0.037609
0.085962 0.089218 -0.21364 0.04581 -0.9967 -0.067044
0.070078 0.088122 -0.20842 0.040249 -0.99287 -0.11219
0.055087 0.087225 -0.20496 0.0204 -0.98923 -0.14494
0.039651 0.086822 -0.20358 0.0059728 -0.9872 -0.1594
0.023457 0.086749 -0.20312 0 -0.98647 -0.16393
0.006667 0.086749 -0.20312 0 -0.98647 -0.16393
-0.0099594 0.086748 -0.20312 -0.0016356 -0.98646 -0.16398
-0.025864 0.086804 -0.2031 -0.01227 -0.98658 -0.16279
-0.040953 0.087269 -0.20396 -0.036974 -0.98807 -0.14948
-0.056658 0.088472 -0.20794 -0.057146 -0.99233 -0.10961
-0.075715 0.089954 -0.21417 -0.039233 -0.99787 -0.052083
-0.095223 0.090571 -0.21808 -0.013391 -0.99981 -0.01441
-0.11335 0.09059 -0.21952 0 -1 0
-0.13014 0.09059 -0.21952 0 -1 0
-0.14693 0.09059 -0.21952 0 -1 0
-0.16372 0.09059 -0.21952 0 -1 0
-0.18051 0.09059 -0.21952 0 -1 0
-0.1973 0.09059 -0.21952 0 -1 0
-0.21409 0.09059 -0.21952 0 -1 0
-0.23088 0.09059 -0.21952 0 -1 0
-0.24953 0.090573 -0.21952 0.018513 -0.99983 0
-0.27394 0.089518 -0.21952 0.094716 -0.9955 0
-0.3084 0.083546 -0.22014 0.27772 -0.96066 0
0.40049 0.019564 -0.21081 -0.87242 -0.48875 0
-0.35246 0.063058 -0.22263 0.57526 -0.81797 0
-0.39213 0.019567 -0.22822 0.87241 -0.48878 0
0.41698 -0.042994 -0.21952 -1 9.2763e-006 0
-0.40862 -0.042994 -0.21952 1 9.2784e-006 0
0.40049 -0.10555 -0.22822 -0.87242 0.48876 0
-0.39213 -0.10555 -0.21081 0.8724 0.48879 0
0.36082 -0.14904 -0.22263 -0.57526 0.81797 0
0.31676 -0.16953 -0.22014 -0.27771 0.96066 0
0.28229 -0.1755 -0.21952 -0.094711 0.9955 0
0.25788 -0.17656 -0.21952 -0.018513 0.99983 0
0.23924 -0.17658 -0.21952 0 1 0
0.22245 -0.17658 -0.21952 0 1 0
0.20566 -0.17658 -0.21952 0 1 0
0.18887 -0.17658 -0.21952 0 1 0
0.17208 -0.17658 -0.21952 0 1 0
0.15529 -0.17658 -0.21952 0 1 0
0.1385 -0.17658 -0.21952 0 1 0
0.12171 -0.17658 -0.21952 0 1 0
0.10492 -0.17658 -0.21952 0 1 0
0.088131 -0.17658 -0.21952 0 1 0
0.071341 -0.17658 -0.21952 0 1 0
0.05455 -0.17658 -0.21952 0 1 0
0.03776 -0.17658 -0.21952 0 1 0
0.02097 -0.17658 -0.21952 0 1 0
0.00418 -0.17658 -0.21952 0 1 0
-0.01261 -0.17658 -0.21952 0 1 0
-0.029401 -0.17658 -0.21952 0 1 0
-0.046191 -0.17658 -0.21952 0 1 0
-0.062981 -0.17658 -0.21952 0 1 0
-0.079771 -0.17658 -0.21952 0 1 0
-0.096562 -0.17658 -0.21952 0 1 0
-0.11335 -0.17658 -0.21952 0 1 0
-0.13014 -0.17658 -0.21952 0 1 0
-0.14693 -0.17658 -0.21952 0 1 0
-0.16372 -0.17658 -0.21952 0 1 0
-0.18051 -0.17658 -0.21952 0 1 0
-0.1973 -0.17658 -0.21952 0 1 0
-0.21409 -0.17658 -0.21952 0 1 0
-0.23088 -0.17658 -0.21952 0 1 0
-0.24953 -0.17656 -0.21952 0.018513 0.99983 0
-0.27394 -0.1755 -0.21952 0.094716 0.9955 0
-0.3084 -0.16953 -0.2189 0.27772 0.96066 0
-0.35246 -0.14904 -0.21641 0.57526 0.81797 0
0.36082 0.063058 -0.2332 -0.57526 -0.81797 0
0.31676 0.083546 -0.23569 -0.27771 -0.96066 0
0.28229 0.089518 -0.23631 -0.094711 -0.9955 0
0.25788 0.090573 -0.23631 -0.018513 -0.99983 0
0.23924 0.09059 -0.23631 0 -1 0
0.22245 0.09059 -0.23631 0 -1 0
0.20566 0.09059 -0.23631 0 -1 0
0.18887 0.09059 -0.23631 0 -1 0
0.17208 0.09059 -0.23631 0 -1 0
0.15529 0.09059 -0.23631 0 -1 0
0.13837 0.09059 -0.23617 0.0013658 -1 -0.0013658
0.12129 0.090586 -0.23571 0.0051199 -0.99996 -0.0068773
0.10403 0.090488 -0.2347 0.012304 -0.99976 -0.017952
0.087085 0.090202 -0.23283 0.016063 -0.99923 -0.035686
0.070846 0.089884 -0.23075 0.011175 -0.99839 -0.055589
0.054816 0.089727 -0.22937 0.0035564 -0.99759 -0.069328
0.038382 0.089695 -0.22893 0 -0.99727 -0.073786
0.021592 0.089695 -0.22893 0 -0.99727 -0.073786
0.004802 0.089695 -0.22893 0 -0.99727 -0.073786
-0.011879 0.089698 -0.22897 -0.0011034 -0.9973 -0.073398
-0.028114 0.089741 -0.22923 -0.0075399 -0.99751 -0.070104
-0.044261 0.089986 -0.23039 -0.016409 -0.99819 -0.057853
-0.06123 0.090384 -0.23285 -0.016838 -0.99928 -0.033902
-0.079095 0.090583 -0.23535 -0.0067585 -0.99993 -0.0096052
-0.096562 0.09059 -0.23631 0 -1 0
-0.11335 0.09059 -0.23631 0 -1 0
-0.13014 0.09059 -0.23631 0 -1 0
-0.14693 0.09059 -0.23631 0 -1 0
-0.16372 0.09059 -0.23631 0 -1 0
-0.18051 0.09059 -0.23631 0 -1 0
-0.1973 0.09059 -0.23631 0 -1 0
-0.21409 0.09059 -0.23631 0 -1 0
-0.23088 0.09059 -0.23631 0 -1 0
-0.24953 0.090573 -0.23631 0.018513 -0.99983 0
-0.27394 0.089518 -0.23631 0.094716 -0.9955 0
-0.3084 0.083546 -0.23693 0.27772 -0.96066 0
0.40049 0.019564 -0.2276 -0.87242 -0.48875 0
-0.35246 0.063058 -0.23942 0.57526 -0.81797 0
-0.39213 0.019567 -0.24501 0.87241 -0.48878 0
0.41698 -0.042994 -0.23631 -1 9.2763e-006 0
-0.40862 -0.042994 -0.23631 1 9.2784e-006 0
0.40049 -0.10555 -0.24501 -0.87242 0.48876 0
-0.39213 -0.10555 -0.2276 0.8724 0.48879 0
0.36082 -0.14904 -0.23942 -0.57526 0.81797 0
0.31676 -0.16953 -0.23693 -0.27771 0.96066 0
0.28229 -0.1755 -0.23631 -0.094711 0.9955 0
0.25788 -0.17656 -0.23631 -0.018513 0.99983 0
0.23924 -0.17658 -0.23631 0 1 0
0.22245 -0.17658 -0.23631 0 1 0
0.20566 -0.17658 -0.23631 0 1 0
0.18887 -0.17658 -0.23631 0 1 0
0.17208 -0.17658 -0.23631 0 1 0
0.15529 -0.17658 -0.23631 0 1 0
0.1385 -0.17658 -0.23631 0 1 0
0.12171 -0.17658 -0.23631 0 1 0
0.10492 -0.17658 -0.23631 0 1 0
0.088131 -0.17658 -0.23631 0 1 0
0.071341 -0.17658 -0.23631 0 1 0
0.05455 -0.17658 -0.23631 0 1 0
0.03776 -0.17658 -0.23631 0 1 0
0.02097 -0.17658 -0.23631 0 1 0
0.00418 -0.17658 -0.23631 0 1 0
-0.01261 -0.17658 -0.23631 0 1 0
-0.029401 -0.17658 -0.23631 0 1 0
-0.046191 -0.17658 -0.23631 0 1 0
-0.062981 -0.17658 -0.23631 0 1 0
-0.079771 -0.17658 -0.23631 0 1 0
-0.096562 -0.17658 -0.23631 0 1 0
-0.11335 -0.17658 -0.23631 0 1 0
-0.13014 -0.17658 -0.23631 0 1 0
-0.14693 -0.17658 -0.23631 0 1 0
-0.16372 -0.17658 -0.23631 0 1 0
-0.18051 -0.17658 -0.23631 0 1 0
-0.1973 -0.17658 -0.23631 0 1 0
-0.21409 -0.17658 -0.23631 0 1 0
-0.23088 -0.17658 -0.23631 0 1 0
-0.24953 -0.17656 -0.23631 0.018513 0.99983 0
-0.27394 -0.1755 -0.23631 0.094716 0.9955 0
-0.3084 -0.16953 -0.23569 0.27772 0.96066 0
-0.35246 -0.14904 -0.2332 0.57526 0.81797 0
0.36082 0.063058 -0.24999 -0.57526 -0.81797 0
0.31676 0.083546 -0.25248 -0.27771 -0.96066 0
0.28229 0.089518 -0.2531 -0.094711 -0.9955 0
0.25788 0.090573 -0.2531 -0.018513 -0.99983 0
0.23924 0.09059 -0.2531 0 -1 0
0.22245 0.09059 -0.2531 0 -1 0
0.20566 0.09059 -0.2531 0 -1 0
0.18887 0.09059 -0.2531 0 -1 0
0.17208 0.09059 -0.2531 0 -1 0
0.15529 0.09059 -0.2531 0 -1 0
0.1385 0.09059 -0.2531 0 -1 0
0.12163 0.09059 -0.25302 0.0007859 -1 -0.00078736
0.10469 0.090589 -0.25263 0.0023385 -0.99999 -0.0047179
0.0879 0.090583 -0.25193 0.0023133 -0.99993 -0.011693
0.071265 0.090575 -0.2514 0.000764 -0.99985 -0.017015
0.05455 0.090573 -0.25125 0 -0.99983 -0.018513
0.03776 0.090573 -0.25125 0 -0.99983 -0.018513
0.02097 0.090573 -0.25125 0 -0.99983 -0.018513
0.00418 0.090573 -0.25125 0 -0.99983 -0.018513
-0.012586 0.090573 -0.25127 -0.00024158 -0.99983 -0.018263
-0.029226 0.090577 -0.2515 -0.0017537 -0.99987 -0.015968
-0.04591 0.090585 -0.25214 -0.0028143 -0.99995 -0.0096062
-0.062849 0.09059 -0.25283 -0.0013196 -1 -0.0026444
-0.079771 0.09059 -0.2531 0 -1 0
-0.096562 0.09059 -0.2531 0 -1 0
-0.11335 0.09059 -0.2531 0 -1 0
-0.13014 0.09059 -0.2531 0 -1 0
-0.14693 0.09059 -0.2531 0 -1 0
-0.16372 0.09059 -0.2531 0 -1 0
-0.18051 0.09059 -0.2531 0 -1 0
-0.1973 0.09059 -0.2531 0 -1 0
-0.21409 0.09059 -0.2531 0 -1 0
-0.23088 0.09059 -0.2531 0 -1 0
-0.24953 0.090573 -0.2531 0.018513 -0.99983 0
-0.27394 0.089518 -0.2531 0.094716 -0.9955 0
-0.3084 0.083546 -0.25372 0.27772 -0.96066 0
0.40049 0.019564 -0.24439 -0.87242 -0.48875 0
-0.35246 0.063058 -0.25621 0.57526 -0.81797 0
-0.39213 0.019567 -0.2618 0.87241 -0.48878 0
0.41698 -0.042994 -0.2531 -1 9.2763e-006 0
-0.40862 -0.042994 -0.2531 1 9.2784e-006 0
0.40049 -0.10555 -0.2618 -0.87242 0.48876 0
-0.39213 -0.10555 -0.24439 0.8724 0.48879 0
0.36082 -0.14904 -0.25621 -0.57526 0.81797 0
0.31676 -0.16953 -0.25372 -0.27771 0.96066 0
0.28229 -0.1755 -0.2531 -0.094711 0.9955 0
0.25788 -0.17656 -0.2531 -0.018513 0.99983 0
0.23924 -0.17658 -0.2531 0 1 0
0.22245 -0.17658 -0.2531 0 1 0
0.20566 -0.17658 -0.2531 0 1 0
0.18887 -0.17658 -0.2531 0 1 0
0.17208 -0.17658 -0.2531 0 1 0
0.15529 -0.17658 -0.2531 0 1 0
0.1385 -0.17658 -0.2531 0 1 0
0.12171 -0.17658 -0.2531 0 1 0
0.10492 -0.17658 -0.2531 0 1 0
0.088131 -0.17658 -0.2531 0 1 0
0.071341 -0.17658 -0.2531 0 1 0
0.05455 -0.17658 -0.2531 0 1 0
0.03776 -0.17658 -0.2531 0 1 0
0.02097 -0.17658 -0.2531 0 1 0
0.00418 -0.17658 -0.2531 0 1 0
-0.01261 -0.17658 -0.2531 0 1 0
-0.029401 -0.17658 -0.2531 0 1 0
-0.046191 -0.17658 -0.2531 0 1 0
-0.062981 -0.17658 -0.2531 0 1 0
-0.079771 -0.17658 -0.2531 0 1 0
-0.096562 -0.17658 -0.2531 0 1 0
-0.11335 -0.17658 -0.2531 0 1 0
-0.13014 -0.17658 -0.2531 0 1 0
-0.14693 -0.17658 -0.2531 0 1 0
-0.16372 -0.17658 -0.2531 0 1 0
-0.18051 -0.17658 -0.2531 0 1 0
-0.1973 -0.17658 -0.2531 0 1 0
-0.21402 -0.17657 -0.25302 -0.00077587 1 -0.00077722
-0.23067 -0.17657 -0.25265 -0.0021026 0.99999 -0.004452
-0.24947 -0.17656 -0.25221 0.017922 0.9998 -0.0088485
-0.27409 -0.17549 -0.25236 0.096292 0.99533 -0.0073756
-0.30848 -0.16951 -0.25226 0.2785 0.96043 -0.0021587
-0.35246 -0.14904 -0.24999 0.57526 0.81797 0
0.36082 0.063058 -0.26678 -0.57526 -0.81797 0
0.31676 0.083546 -0.26926 -0.27771 -0.96066 0
0.28229 0.089518 -0.26989 -0.094711 -0.9955 0
0.25788 0.090573 -0.26989 -0.018513 -0.99983 0
0.23924 0.09059 -0.26989 0 -1 0
0.22245 0.09059 -0.26989 0 -1 0
0.20566 0.09059 -0.26989 0 -1 0
0.18887 0.09059 -0.26989 0 -1 0
0.17208 0.09059 -0.26989 0 -1 0
0.15529 0.09059 -0.26989 0 -1 0
0.1385 0.09059 -0.26989 0 -1 0
0.12171 0.09059 -0.26989 0 -1 0
0.10492 0.09059 -0.26989 0 -1 0
0.088131 0.09059 -0.26989 0 -1 0
0.071341 0.09059 -0.26989 0 -1 0
0.05455 0.09059 -0.26989 0 -1 0
0.03776 0.09059 -0.26989 0 -1 0
0.02097 0.09059 -0.26989 0 -1 0
0.00418 0.09059 -0.26989 0 -1 0
-0.01261 0.09059 -0.26989 0 -1 0
-0.029401 0.09059 -0.26989 0 -1 0
-0.046191 0.09059 -0.26989 0 -1 0
-0.062981 0.09059 -0.26989 0 -1 0
-0.079771 0.09059 -0.26989 0 -1 0
-0.096562 0.09059 -0.26989 0 -1 0
-0.11335 0.09059 -0.26989 0 -1 0
-0.13014 0.09059 -0.26989 0 -1 0
-0.14693 0.09059 -0.26989 0 -1 0
-0.16372 0.09059 -0.26989 0 -1 0
-0.18051 0.09059 -0.26989 0 -1 0
-0.1973 0.09059 -0.26989 0 -1 0
-0.21409 0.09059 -0.26989 0 -1 0
-0.23088 0.09059 -0.26989 0 -1 0
-0.24953 0.090573 -0.26989 0.018513 -0.99983 0
-0.27394 0.089518 -0.26989 0.094716 -0.9955 0
-0.3084 0.083546 -0.27051 0.27772 -0.96066 0
0.40049 0.019564 -0.26118 -0.87242 -0.48875 0
-0.35246 0.063058 -0.273 0.57526 -0.81797 0
-0.39213 0.019557 -0.27861 0.87246 -0.48868 0.00017481
0.41698 -0.042994 -0.26989 -1 9.2763e-006 0
-0.40862 -0.042962 -0.26976 1 -0.00030649 -0.0012704
0.40096 -0.10465 -0.27659 -0.87715 0.4798 -0.020008
-0.39213 -0.10555 -0.26108 0.8724 0.48879 -0.0010427
0.36103 -0.14887 -0.27104 -0.57735 0.81627 -0.019542
0.31655 -0.16959 -0.26941 -0.27559 0.96121 -0.010944
0.28217 -0.17552 -0.26961 -0.093437 0.99562 -0.002739
0.25788 -0.17656 -0.26989 -0.018513 0.99983 0
0.23924 -0.17658 -0.26989 0 1 0
0.22245 -0.17658 -0.26989 0 1 0
0.20566 -0.17658 -0.26989 0 1 0
