0.24127 -0.18261 -0.37001 -0.52879 0.050891 0.84723
0.21964 -0.18107 -0.38314 -0.48788 0.043806 0.87181
-0.32955 -0.19059 -0.37713 0.58582 0.13054 0.79986
-0.35256 -0.1906 -0.35785 0.66114 0.11988 0.74062
0.23562 -0.20235 -0.37177 -0.52038 0.079606 0.85022
0.21495 -0.19896 -0.38456 -0.47431 0.082744 0.87646
-0.32969 -0.20847 -0.37346 0.59071 0.13825 0.79495
0.22076 -0.22238 -0.37828 -0.48187 0.10896 0.86944
-0.33105 -0.22564 -0.3693 0.60395 0.14144 0.78437
0.22477 -0.24272 -0.3732 -0.48102 0.1127 0.86944
0.20809 -0.24009 -0.38295 -0.46222 0.11658 0.87907
-0.33251 -0.24144 -0.36568 0.61514 0.13031 0.77757
0.22064 -0.25845 -0.3734 -0.47792 0.13128 0.86854
0.20142 -0.25576 -0.38424 -0.45798 0.11338 0.8817
-0.30892 -0.26017 -0.37978 0.54844 0.14542 0.82345
-0.33316 -0.2601 -0.36173 0.62008 0.14479 0.77106
0.21558 -0.27486 -0.37367 -0.48692 0.13027 0.86368
0.19665 -0.27074 -0.38503 -0.45859 0.12076 0.88041
-0.30934 -0.28083 -0.37554 0.55263 0.18127 0.81348
-0.33294 -0.28085 -0.35764 0.61976 0.17912 0.76407
0.20188 -0.29423 -0.37819 -0.47196 0.14949 0.86885
-0.31035 -0.3011 -0.36948 0.56268 0.21314 0.79872
0.20692 -0.31876 -0.37078 -0.48493 0.19174 0.85328
0.18776 -0.31558 -0.38215 -0.44954 0.18687 0.87349
-0.28795 -0.31941 -0.37976 0.50948 0.22547 0.83042
-0.31138 -0.31965 -0.36319 0.57298 0.22792 0.78724
0.19797 -0.33559 -0.37155 -0.46654 0.21721 0.85741
0.1747 -0.33671 -0.38342 -0.41758 0.22718 0.87978
-0.28898 -0.33747 -0.37355 0.51983 0.23532 0.82122
0.18667 -0.35661 -0.37195 -0.43863 0.25641 0.86131
0.16001 -0.35971 -0.38365 -0.37887 0.26142 0.88776
-0.26646 -0.35582 -0.38208 0.46538 0.24807 0.84964
-0.28992 -0.35654 -0.36705 0.52922 0.25527 0.80917
0.17492 -0.3766 -0.3715 -0.42117 0.28403 0.86136
0.15744 -0.37778 -0.37926 -0.37066 0.29162 0.8818
0.139 -0.37938 -0.38568 -0.32821 0.29009 0.89896
-0.26715 -0.37699 -0.37478 0.47232 0.28895 0.83272
-0.29103 -0.37766 -0.35977 0.54031 0.29561 0.78783
0.15496 -0.39375 -0.37458 -0.36793 0.31014 0.87661
0.13731 -0.39564 -0.38096 -0.33121 0.30641 0.89242
0.11994 -0.39755 -0.3863 -0.30357 0.30284 0.9034
-0.24403 -0.39836 -0.37909 0.41064 0.33442 0.84825
-0.26791 -0.39971 -0.36536 0.47984 0.34538 0.80651
0.13555 -0.41135 -0.37599 -0.33508 0.31643 0.88746
0.11821 -0.41331 -0.38159 -0.30805 0.31146 0.89894
0.101 -0.4149 -0.38661 -0.28383 0.30675 0.90848
-0.22075 -0.41937 -0.38041 0.34502 0.38316 0.85683
-0.24459 -0.42039 -0.36893 0.41693 0.38463 0.82355
0.1163 -0.4295 -0.37647 -0.31167 0.32396 0.89326
0.099015 -0.43136 -0.3817 -0.28576 0.32208 0.90255
0.080967 -0.43266 -0.3865 -0.25052 0.31743 0.91459
-0.17193 -0.44278 -0.38525 0.22902 0.40681 0.88434
-0.19512 -0.43702 -0.3814 0.27788 0.40686 0.8702
-0.22137 -0.43888 -0.37073 0.35271 0.40903 0.8416
0.09646 -0.44861 -0.37599 -0.28465 0.34941 0.89268
0.079568 -0.45121 -0.38037 -0.25509 0.35711 0.89855
0.062546 -0.45131 -0.38454 -0.21212 0.35259 0.91142
0.037256 -0.45313 -0.38907 -0.16289 0.35064 0.92223
-0.1325 -0.46059 -0.38603 0.17397 0.41575 0.89268
-0.15346 -0.45645 -0.38343 0.20587 0.41835 0.88465
-0.1785 -0.46091 -0.37457 0.24986 0.43066 0.86724
-0.20182 -0.45474 -0.37047 0.29875 0.42752 0.85321
0.58441 -0.37874 -0.32061 -0.43399 -0.84626 0.30903
0.53812 -0.36497 -0.32245 -0.13817 -0.93992 0.3122
0.50411 -0.36388 -0.32383 0.030894 -0.94296 0.33146
0.075183 -0.46917 -0.37364 -0.2408 0.38974 0.88889
0.051373 -0.47258 -0.37819 -0.20362 0.39491 0.89587
0.035595 -0.47301 -0.38149 -0.16453 0.39834 0.90236
0.018639 -0.47195 -0.38437 -0.11274 0.39267 0.91274
-0.0037159 -0.47229 -0.38648 -0.065851 0.39533 0.91617
-0.025732 -0.47358 -0.38681 -0.02352 0.40234 0.91519
-0.044965 -0.47396 -0.3869 -0.0037785 0.40473 0.91443
-0.064617 -0.47449 -0.38659 0.021052 0.41071 0.91153
-0.086651 -0.47484 -0.38543 0.064375 0.42112 0.90472
-0.11312 -0.47355 -0.38327 0.13203 0.43036 0.89295
-0.1388 -0.47942 -0.37518 0.19027 0.44313 0.87603
-0.15919 -0.4744 -0.37311 0.21703 0.43854 0.87211
0.63243 -0.41827 -0.31848 -0.75607 -0.56262 0.3344
0.47973 -0.3657 -0.32297 0.12853 -0.92937 0.34605
0.46179 -0.37408 -0.33521 0.20757 -0.88798 0.41038
0.43886 -0.37898 -0.33232 0.2558 -0.86483 0.43201
0.031853 -0.49142 -0.3732 -0.15128 0.43924 0.88554
0.0066124 -0.49286 -0.37588 -0.085734 0.43752 0.89511
-0.015355 -0.49466 -0.37648 -0.039098 0.44489 0.89473
-0.035391 -0.49521 -0.37671 -0.010975 0.44643 0.89475
-0.054926 -0.49558 -0.37652 0.013601 0.45013 0.89286
-0.075949 -0.49564 -0.37577 0.049345 0.45401 0.88963
-0.099628 -0.49574 -0.37373 0.10574 0.46226 0.88042
-0.11997 -0.49341 -0.37197 0.15395 0.46146 0.8737
0.41343 -0.39295 -0.34109 0.32082 -0.80934 0.49198
0.39295 -0.40567 -0.34762 0.38449 -0.75595 0.52981
0.65631 -0.46928 -0.31736 -0.92323 -0.20618 0.32424
0.36857 -0.41783 -0.34421 0.45737 -0.69249 0.55792
0.65872 -0.50172 -0.32018 -0.95055 -0.010704 0.3104
0.34265 -0.4469 -0.35308 0.54813 -0.55852 0.62258
0.6569 -0.53073 -0.32023 -0.94937 0.1176 0.29133
0.32265 -0.47838 -0.3587 0.61452 -0.41146 0.6731
0.65263 -0.55541 -0.3194 -0.94094 0.19544 0.27647
0.30708 -0.51609 -0.3617 0.66965 -0.20807 0.71294
0.64857 -0.57574 -0.31715 -0.93964 0.22961 0.2537
0.29639 -0.55739 -0.3561 0.71005 0.041333 0.70293
0.64468 -0.59368 -0.31409 -0.94555 0.2376 0.22243
0.30648 -0.59014 -0.36094 0.72526 0.20902 0.65598
0.64023 -0.61253 -0.31336 -0.94415 0.25651 0.20684
0.30821 -0.62564 -0.34501 0.70191 0.38867 0.59688
0.63464 -0.62863 -0.3168 -0.93552 0.28119 0.21385
0.322 -0.64752 -0.34554 0.70989 0.43698 0.55237
0.63029 -0.64739 -0.31033 -0.93571 0.28356 0.20987
0.3305 -0.66319 -0.3439 0.74562 0.42262 0.51521
0.6243 -0.66567 -0.31316 -0.93616 0.27398 0.22033
0.33597 -0.67447 -0.34287 0.79054 0.36255 0.49356
0.61789 -0.68448 -0.31627 -0.92498 0.28877 0.24702
0.34298 -0.6891 -0.34513 0.81085 0.3338 0.48073
0.60962 -0.70646 -0.31973 -0.89835 0.34005 0.27808
0.3444 -0.71157 -0.33132 0.79646 0.38539 0.46596
0.59602 -0.73352 -0.32466 -0.83537 0.44991 0.31583
0.36114 -0.73931 -0.33351 0.74686 0.50214 0.43596
0.57355 -0.7612 -0.33376 -0.69445 0.61117 0.37975
0.39372 -0.77514 -0.33472 0.56684 0.71421 0.4106
0.54292 -0.78889 -0.33029 -0.47841 0.7827 0.39813
0.49988 -0.80885 -0.32377 -0.16327 0.9077 0.38656
0.44648 -0.80392 -0.32925 0.2122 0.881 0.42287
0.0025462 0.18099 -0.39277 -0.12826 -0.37181 0.9194
-0.017467 0.18387 -0.3939 -0.076367 -0.3781 0.92261
-0.040968 0.18463 -0.39483 -0.017272 -0.37822 0.92555
-0.064483 0.18437 -0.3945 0.040143 -0.38098 0.92371
0.042582 0.16034 -0.39322 -0.19547 -0.33794 0.92065
0.022141 0.16574 -0.39538 -0.16928 -0.3408 0.92477
-0.088499 0.18205 -0.39361 0.083449 -0.38509 0.9191
-0.10549 0.166 -0.3985 0.107 -0.36691 0.92408
-0.12726 0.16796 -0.39462 0.14693 -0.37761 0.91423
0.057062 0.14443 -0.39557 -0.20433 -0.31223 0.92777
-0.0017348 0.16245 -0.40051 -0.11675 -0.3315 0.9362
-0.0259 0.16241 -0.40242 -0.052469 -0.33042 0.94238
-0.048691 0.16329 -0.40281 -0.0035208 -0.33556 0.94201
-0.070342 0.16325 -0.40243 0.041259 -0.34479 0.93777
-0.087133 0.16058 -0.40238 0.069347 -0.35124 0.93371
-0.15391 0.16381 -0.39118 0.21685 -0.37624 0.90079
0.099297 0.12136 -0.39333 -0.2513 -0.29177 0.92288
0.077055 0.12743 -0.39674 -0.21327 -0.29256 0.93216
0.038618 0.14392 -0.4 -0.18887 -0.31453 0.93027
0.017191 0.14443 -0.40345 -0.15608 -0.31709 0.93546
-0.0075021 0.14129 -0.40805 -0.095709 -0.31094 0.9456
-0.033209 0.14327 -0.40925 -0.038837 -0.30888 0.95031
-0.054962 0.14398 -0.40935 0.0032054 -0.31284 0.9498
-0.075068 0.14417 -0.40879 0.036962 -0.32193 0.94604
-0.096156 0.14465 -0.40748 0.080641 -0.32868 0.94099
-0.11753 0.14695 -0.40432 0.11805 -0.33779 0.93379
-0.13703 0.15114 -0.40005 0.16296 -0.3543 0.92082
-0.15337 0.14276 -0.39978 0.21195 -0.33752 0.91715
-0.17604 0.14424 -0.39312 0.27195 -0.35471 0.89455
0.11806 0.10464 -0.39283 -0.29812 -0.26531 0.91691
0.057744 0.12549 -0.40165 -0.21233 -0.29669 0.93107
0.035885 0.12358 -0.40703 -0.18788 -0.30211 0.93457
0.013516 0.12891 -0.40964 -0.14646 -0.30647 0.94055
-0.1355 0.12819 -0.40818 0.15634 -0.30669 0.93888
-0.16138 0.12572 -0.40383 0.21417 -0.30872 0.92673
-0.17918 0.12712 -0.39883 0.27054 -0.32491 0.90622
-0.19721 0.12668 -0.39278 0.31513 -0.34165 0.88542
0.1393 0.086104 -0.39019 -0.34637 -0.24413 0.90577
0.094883 0.10452 -0.39944 -0.23392 -0.25908 0.9371
0.076501 0.10633 -0.40308 -0.22631 -0.27308 0.93499
0.058776 0.10663 -0.40747 -0.22139 -0.28709 0.93197
-0.17906 0.10965 -0.40458 0.25045 -0.29401 0.92241
-0.19831 0.10987 -0.39881 0.29853 -0.31436 0.90114
-0.21608 0.10903 -0.3926 0.33547 -0.33285 0.88129
0.116 0.084708 -0.39897 -0.28257 -0.23044 0.93115
0.09537 0.085841 -0.40397 -0.24729 -0.24014 0.93871
0.077889 0.087783 -0.40823 -0.24367 -0.26187 0.93384
-0.19823 0.092037 -0.40449 0.27671 -0.28498 0.91772
-0.21724 0.091978 -0.39856 0.31943 -0.30453 0.89735
-0.23579 0.091119 -0.39144 0.36667 -0.31878 0.87403
0.15933 0.047518 -0.39138 -0.37689 -0.19889 0.90465
0.13799 0.065896 -0.39607 -0.33425 -0.21188 0.91836
0.11585 0.06663 -0.40281 -0.28358 -0.21922 0.93356
0.097407 0.068739 -0.40799 -0.26997 -0.24031 0.9324
-0.2175 0.073888 -0.40399 0.30361 -0.27141 0.91332
-0.23765 0.073866 -0.39692 0.36082 -0.28635 0.88759
-0.25615 0.073277 -0.38854 0.42145 -0.28468 0.86101
0.1381 0.047924 -0.39995 -0.33533 -0.20295 0.91998
0.11773 0.048985 -0.4067 -0.30238 -0.21356 0.92896
-0.23932 0.054689 -0.40169 0.36056 -0.24684 0.89948
-0.26792 0.052668 -0.38913 0.44072 -0.24938 0.86231
0.17994 0.0089892 -0.39014 -0.41213 -0.15516 0.89781
0.15925 0.028835 -0.39578 -0.37609 -0.18284 0.90836
0.13854 0.029458 -0.40348 -0.33968 -0.18907 0.92134
-0.25461 0.031937 -0.40111 0.40604 -0.21328 0.88862
-0.28115 0.031251 -0.38736 0.48897 -0.20017 0.84902
0.16015 0.010007 -0.3989 -0.38506 -0.16534 0.90796
0.13861 0.0099525 -0.40764 -0.34039 -0.16479 0.92573
-0.26918 0.011272 -0.39873 0.45122 -0.17701 0.87468
-0.29384 0.014687 -0.3836 0.53328 -0.17566 0.8275
0.17999 -0.0089017 -0.39318 -0.41268 -0.14704 0.89893
0.15981 -0.0093767 -0.40228 -0.38163 -0.14229 0.9133
-0.28627 -0.0081002 -0.39249 0.49786 -0.16119 0.85214
0.20047 -0.045994 -0.38882 -0.44665 -0.11768 0.88693
0.18013 -0.02748 -0.39603 -0.41409 -0.13204 0.90061
0.15854 -0.027975 -0.40564 -0.36895 -0.12709 0.92072
-0.27856 -0.03135 -0.40122 0.46609 -0.1327 0.87473
-0.30084 -0.027925 -0.38719 0.53618 -0.13499 0.83324
0.17997 -0.046124 -0.39877 -0.41248 -0.11638 0.9035
0.15761 -0.04739 -0.40843 -0.35963 -0.10372 0.92731
-0.28464 -0.047161 -0.39993 0.47987 -0.11604 0.86963
-0.30957 -0.04361 -0.38409 0.55322 -0.1342 0.82215
0.20018 -0.066172 -0.39153 -0.44375 -0.086686 0.89195
0.17898 -0.066402 -0.40155 -0.40257 -0.084386 0.91149
-0.29278 -0.062889 -0.39748 0.49492 -0.11992 0.86063
-0.31625 -0.058879 -0.38194 0.5671 -0.12741 0.81373
0.20035 -0.087018 -0.39292 -0.44549 -0.04901 0.89395
0.179 -0.086762 -0.40321 -0.40273 -0.051573 0.91386
-0.30571 -0.079261 -0.39199 0.51789 -0.13396 0.84489
0.20034 -0.10713 -0.39359 -0.44541 -0.018677 0.89513
0.17929 -0.10688 -0.40368 -0.40566 -0.021217 0.91378
-0.29687 -0.10356 -0.40101 0.48225 -0.094057 0.87097
-0.31882 -0.099888 -0.38672 0.55135 -0.098761 0.8284
0.20051 -0.12545 -0.39376 -0.44711 -0.0062211 0.89446
0.17936 -0.12551 -0.40391 -0.40635 -0.0056524 0.9137
-0.30158 -0.12378 -0.39977 0.49598 -0.030185 0.86781
-0.32587 -0.12146 -0.38425 0.56939 -0.043626 0.82091
0.20058 -0.14354 -0.39373 -0.4478 0.0038603 0.89413
0.17933 -0.14336 -0.40392 -0.40601 0.0020648 0.91386
-0.30349 -0.1462 -0.39839 0.49891 0.030213 0.86613
-0.32857 -0.14603 -0.38255 0.57784 0.030112 0.8156
0.20021 -0.16168 -0.39379 -0.44758 0.016351 0.89409
0.17897 -0.16219 -0.40399 -0.40413 0.019899 0.91449
-0.30477 -0.16956 -0.39626 0.50687 0.093235 0.85697
-0.32948 -0.16973 -0.3797 0.58327 0.09433 0.80678
0.19832 -0.1814 -0.39401 -0.43922 0.047118 0.89714
0.17747 -0.18322 -0.40382 -0.39932 0.055583 0.91512
-0.30543 -0.18988 -0.39275 0.51353 0.12571 0.84881
0.19702 -0.20351 -0.39298 -0.43476 0.093077 0.89572
0.17481 -0.20544 -0.40306 -0.39757 0.086592 0.91348
-0.28311 -0.2067 -0.4031 0.46108 0.12313 0.87877
-0.30645 -0.20774 -0.38908 0.52375 0.13355 0.84134
0.19471 -0.22225 -0.3919 -0.43971 0.10779 0.89165
0.17989 -0.22275 -0.399 -0.41063 0.11382 0.90467
0.16523 -0.22127 -0.40542 -0.38214 0.10461 0.91817
-0.28371 -0.22289 -0.40029 0.46713 0.11423 0.87678
-0.30788 -0.22381 -0.38612 0.53804 0.12341 0.83384
0.18439 -0.23744 -0.39474 -0.42149 0.11764 0.89917
0.1628 -0.23715 -0.40476 -0.39492 0.095112 0.91378
-0.28463 -0.24134 -0.39763 0.47631 0.12798 0.86991
-0.30901 -0.24156 -0.38243 0.54928 0.13015 0.82544
0.18127 -0.25418 -0.39427 -0.42881 0.097894 0.89807
0.16095 -0.25541 -0.40372 -0.39934 0.094477 0.91192
-0.28577 -0.26027 -0.39386 0.48766 0.14645 0.86066
0.1798 -0.27419 -0.3928 -0.43336 0.1182 0.89344
0.15674 -0.27669 -0.40317 -0.38739 0.11458 0.91477
-0.26257 -0.27913 -0.40299 0.42644 0.16425 0.88948
-0.28663 -0.28053 -0.3892 0.49625 0.17832 0.84967
0.17671 -0.2942 -0.39149 -0.43761 0.14435 0.8875
0.1605 -0.29574 -0.39903 -0.39351 0.15869 0.90552
0.14298 -0.29611 -0.40577 -0.34094 0.16368 0.92572
-0.26453 -0.29959 -0.3976 0.44609 0.19811 0.87278
-0.28677 -0.2997 -0.38493 0.49772 0.19916 0.84416
0.1615 -0.31466 -0.39445 -0.38827 0.19915 0.89977
0.13391 -0.31877 -0.40457 -0.32738 0.19715 0.9241
-0.2418 -0.3172 -0.40434 0.38954 0.20336 0.89828
-0.26568 -0.31904 -0.39184 0.45762 0.22184 0.86103
0.15129 -0.33734 -0.39346 -0.36932 0.23188 0.89991
0.13518 -0.33871 -0.39953 -0.33234 0.24078 0.91191
0.1165 -0.3399 -0.40537 -0.28698 0.23604 0.9284
-0.2438 -0.33745 -0.39839 0.40961 0.23517 0.88143
-0.26578 -0.33696 -0.38698 0.45858 0.23022 0.85832
0.13426 -0.35673 -0.3945 -0.33125 0.27373 0.90297
0.11694 -0.35861 -0.4001 -0.29855 0.27421 0.91415
0.098208 -0.35895 -0.40555 -0.26201 0.26119 0.92905
-0.22015 -0.3566 -0.40301 0.34267 0.25846 0.9032
-0.24363 -0.35668 -0.39289 0.40787 0.25664 0.87623
0.11535 -0.37548 -0.39515 -0.30065 0.29475 0.90704
0.098379 -0.37714 -0.4001 -0.27852 0.29136 0.91517
0.07957 -0.37729 -0.40538 -0.23807 0.27782 0.93067
-0.19692 -0.37728 -0.4045 0.2776 0.30239 0.91186
-0.22053 -0.37712 -0.39656 0.34549 0.29374 0.89127
-0.24301 -0.37657 -0.38691 0.40072 0.28567 0.87052
0.096551 -0.39328 -0.3952 -0.28102 0.30506 0.90993
0.079455 -0.3944 -0.40001 -0.25255 0.30192 0.91927
0.062818 -0.39312 -0.40451 -0.21013 0.28923 0.93391
0.03728 -0.39509 -0.40906 -0.15716 0.28507 0.94554
-0.14794 -0.40112 -0.40771 0.16297 0.33523 0.92793
-0.17138 -0.39641 -0.4045 0.21396 0.33654 0.91704
-0.19656 -0.39788 -0.39745 0.27099 0.33616 0.90198
-0.22048 -0.39717 -0.38955 0.34025 0.32823 0.88119
0.07609 -0.41054 -0.39545 -0.24581 0.31405 0.91703
0.05455 -0.40975 -0.40102 -0.20471 0.3114 0.92797
0.039266 -0.41652 -0.40182 -0.1689 0.31651 0.93343
0.020059 -0.41174 -0.40625 -0.12193 0.30051 0.94595
-0.0016242 -0.41108 -0.40885 -0.075208 0.30143 0.95052
-0.023183 -0.41298 -0.4092 -0.031033 0.31121 0.94983
-0.04252 -0.41376 -0.40934 -0.0092478 0.31506 0.94903
-0.060649 -0.41384 -0.40931 0.0012481 0.31585 0.94881
-0.079612 -0.41401 -0.40919 0.019201 0.31826 0.94781
-0.10145 -0.41422 -0.40829 0.060481 0.32574 0.94352
-0.12771 -0.41426 -0.40576 0.12109 0.34614 0.93034
-0.15289 -0.41879 -0.39986 0.18251 0.36763 0.91189
-0.17707 -0.42106 -0.39343 0.22809 0.3744 0.89877
-0.2008 -0.41514 -0.38925 0.28247 0.3692 0.88538
0.054631 -0.42955 -0.39395 -0.2047 0.32709 0.92256
0.028471 -0.43197 -0.39833 -0.14533 0.33322 0.93158
0.0094026 -0.42786 -0.40226 -0.10001 0.32934 0.9389
-0.0091736 -0.43143 -0.4025 -0.056644 0.33411 0.94083
-0.029832 -0.43223 -0.40298 -0.02142 0.3313 0.94328
-0.04876 -0.43255 -0.40306 -0.0037779 0.33217 0.94321
-0.067103 -0.43276 -0.40298 0.0088627 0.33435 0.94241
-0.087556 -0.43318 -0.40236 0.040494 0.34177 0.93891
-0.11116 -0.43406 -0.40045 0.10003 0.35556 0.92928
-0.13658 -0.43878 -0.39467 0.16485 0.37909 0.91056
-0.15784 -0.43552 -0.39177 0.19825 0.38839 0.89992
0.0091282 -0.44867 -0.39441 -0.097182 0.35387 0.93023
-0.016134 -0.45155 -0.39541 -0.045677 0.35808 0.93257
-0.037008 -0.4525 -0.3956 -0.012871 0.36155 0.93226
-0.05568 -0.45272 -0.39559 0.0021676 0.36312 0.93174
-0.075495 -0.45317 -0.3952 0.028357 0.36991 0.92864
-0.097516 -0.45365 -0.39389 0.075131 0.38289 0.92073
-0.11796 -0.45186 -0.39234 0.13141 0.38901 0.91181
0.61404 -0.41148 -0.34462 -0.66032 -0.63596 0.3994
0.56505 -0.38288 -0.351 -0.31291 -0.84489 0.43388
0.52053 -0.37519 -0.35165 -0.034592 -0.89804 0.43855
0.48422 -0.37676 -0.34995 0.13548 -0.88643 0.44258
0.45159 -0.38968 -0.35884 0.26371 -0.83237 0.48746
0.64637 -0.45831 -0.33551 -0.88383 -0.293 0.36468
0.42779 -0.39645 -0.35648 0.31633 -0.79862 0.51199
0.40557 -0.41469 -0.3677 0.3784 -0.72387 0.57691
0.38183 -0.42477 -0.36331 0.44516 -0.67144 0.59245
0.65082 -0.49744 -0.34179 -0.9296 -0.051982 0.36489
0.36155 -0.44542 -0.36857 0.52701 -0.57572 0.62515
0.64935 -0.52847 -0.34267 -0.93252 0.094941 0.34842
0.34144 -0.47586 -0.37429 0.60512 -0.43216 0.66863
0.6469 -0.55213 -0.34006 -0.93554 0.16173 0.31403
0.32471 -0.51135 -0.37684 0.66634 -0.2505 0.70231
0.64421 -0.57215 -0.33528 -0.945 0.19113 0.26542
0.31201 -0.55009 -0.37196 0.71489 -0.028542 0.69865
0.64076 -0.59183 -0.33308 -0.94568 0.21838 0.24083
0.31875 -0.58122 -0.37691 0.72555 0.14305 0.67314
0.63549 -0.61187 -0.33342 -0.93705 0.2544 0.23919
0.32242 -0.61805 -0.36623 0.72251 0.33203 0.60641
0.63025 -0.63126 -0.33227 -0.93186 0.27939 0.23145
0.33271 -0.64396 -0.36233 0.74182 0.39079 0.54496
0.62453 -0.64992 -0.33183 -0.93007 0.28574 0.23094
0.33922 -0.66036 -0.35902 0.77901 0.37786 0.50036
0.61832 -0.66892 -0.33288 -0.92335 0.29546 0.24522
0.34467 -0.67325 -0.35895 0.80732 0.33711 0.48434
0.61101 -0.68848 -0.33591 -0.90456 0.32213 0.27929
0.35401 -0.68984 -0.36321 0.80464 0.34164 0.48563
0.5997 -0.71176 -0.34227 -0.85732 0.39175 0.33398
0.35529 -0.70974 -0.35118 0.79478 0.37232 0.47927
0.57859 -0.74096 -0.35244 -0.73181 0.53069 0.42757
0.37159 -0.73766 -0.35407 0.73471 0.49529 0.46357
0.53986 -0.77425 -0.35818 -0.45588 0.73039 0.50863
0.44236 -0.78931 -0.3561 0.23602 0.83391 0.49888
0.40227 -0.76654 -0.36009 0.52982 0.68974 0.4935
0.49298 -0.79612 -0.35001 -0.11875 0.85741 0.50074
-0.00010624 0.12124 -0.41366 -0.1052 -0.28663 0.95225
-0.018999 0.12383 -0.41455 -0.064018 -0.28844 0.95536
-0.03982 0.12473 -0.41518 -0.029428 -0.29086 0.95631
-0.060534 0.12571 -0.41525 0.0035437 -0.30066 0.95372
-0.082503 0.12585 -0.41469 0.047341 -0.30828 0.95012
0.042579 0.10342 -0.41214 -0.19549 -0.28406 0.93867
0.020122 0.10794 -0.4148 -0.14889 -0.27541 0.94973
-0.10774 0.12445 -0.41292 0.10083 -0.31471 0.94382
-0.12575 0.10732 -0.41642 0.14421 -0.29025 0.94602
0.059426 0.087207 -0.41296 -0.22413 -0.2618 0.93874
-0.0032302 0.10453 -0.41889 -0.096098 -0.26087 0.96058
-0.024454 0.10474 -0.42033 -0.056591 -0.26172 0.96348
-0.044093 0.10624 -0.42087 -0.034685 -0.27821 0.95989
-0.065811 0.10739 -0.42078 0.0029855 -0.29368 0.9559
-0.088984 0.10769 -0.42016 0.055491 -0.30058 0.95214
-0.10752 0.1043 -0.4198 0.10334 -0.29003 0.95142
-0.15114 0.10464 -0.41243 0.19248 -0.28808 0.93806
0.077976 0.068741 -0.41327 -0.24549 -0.24128 0.93889
0.03767 0.086465 -0.41802 -0.17469 -0.25144 0.95198
0.015288 0.086096 -0.4214 -0.12897 -0.24721 0.96034
-0.0071689 0.0867 -0.42362 -0.087071 -0.25307 0.96352
-0.026382 0.089037 -0.42445 -0.072758 -0.27243 0.95942
-0.047188 0.087744 -0.42639 -0.044294 -0.28804 0.95659
-0.074351 0.088951 -0.42655 0.023381 -0.28462 0.95835
-0.098515 0.088646 -0.42509 0.08506 -0.27216 0.95849
-0.11656 0.09197 -0.42203 0.12697 -0.27048 0.95432
-0.1331 0.088941 -0.42053 0.15465 -0.27294 0.94952
-0.1507 0.084442 -0.41888 0.18829 -0.26682 0.94517
-0.1718 0.085882 -0.41351 0.23025 -0.27374 0.93384
0.097498 0.049568 -0.41267 -0.27088 -0.21939 0.93728
0.057336 0.067435 -0.41877 -0.20893 -0.22917 0.9507
0.036349 0.06721 -0.42274 -0.17309 -0.2318 0.95724
0.013958 0.067613 -0.42648 -0.13948 -0.26158 0.95505
-0.011337 0.072229 -0.42811 -0.095617 -0.27283 0.9573
-0.02799 0.075791 -0.42872 -0.081588 -0.28068 0.95633
-0.11603 0.072262 -0.42791 0.12621 -0.25473 0.95874
-0.14056 0.069214 -0.42458 0.16669 -0.24411 0.95531
-0.15818 0.072094 -0.42048 0.19945 -0.25208 0.94693
-0.17125 0.066794 -0.41909 0.2241 -0.2524 0.94131
-0.19119 0.067849 -0.4136 0.2561 -0.26133 0.93066
0.11811 0.029964 -0.41063 -0.30622 -0.19413 0.93196
0.076581 0.048278 -0.41865 -0.23249 -0.20649 0.95043
0.057599 0.048627 -0.42276 -0.21386 -0.21228 0.95352
0.039972 0.050767 -0.42627 -0.20417 -0.24439 0.94794
-0.15708 0.053349 -0.42567 0.19219 -0.23367 0.95313
-0.17741 0.05453 -0.42066 0.22724 -0.23984 0.94384
-0.19008 0.048697 -0.41916 0.2447 -0.23984 0.93947
-0.21077 0.049866 -0.41285 0.28797 -0.24798 0.92498
0.096368 0.028465 -0.41771 -0.25958 -0.17914 0.94896
0.07688 0.028474 -0.42229 -0.23548 -0.17923 0.95521
0.060653 0.030584 -0.42621 -0.24278 -0.20291 0.94862
-0.17587 0.034775 -0.42587 0.21765 -0.21511 0.95203
-0.19613 0.036153 -0.42055 0.24918 -0.22379 0.94225
-0.20966 0.030262 -0.4183 0.27962 -0.21917 0.93476
-0.22922 0.032259 -0.41123 0.33416 -0.21885 0.91676
0.13772 -0.010488 -0.41087 -0.3315 -0.13118 0.93429
0.11688 0.0088251 -0.41502 -0.29392 -0.15352 0.94342
0.095382 0.0077293 -0.4212 -0.24972 -0.14256 0.95776
0.079707 0.010315 -0.42491 -0.26375 -0.16842 0.94977
-0.19456 0.015628 -0.4255 0.24463 -0.18988 0.95084
-0.21799 0.015582 -0.41884 0.30528 -0.1853 0.93406
-0.23932 0.009484 -0.41224 0.35985 -0.18176 0.91513
0.11584 -0.011068 -0.41836 -0.28347 -0.12538 0.95075
0.097564 -0.0098176 -0.42281 -0.27154 -0.13788 0.9525
0.08143 -0.0081056 -0.42788 -0.28098 -0.155 0.94711
-0.21178 -0.0052889 -0.42456 0.28388 -0.1603 0.94536
-0.23407 -0.01042 -0.41814 0.34381 -0.15957 0.92538
-0.25632 -0.0086319 -0.40844 0.41679 -0.15268 0.89609
0.137 -0.028808 -0.4135 -0.32436 -0.11876 0.93845
0.1159 -0.02923 -0.42046 -0.28408 -0.11454 0.95194
0.099734 -0.026903 -0.42485 -0.29324 -0.13781 0.94605
-0.22011 -0.027642 -0.42548 0.30041 -0.12649 0.94538
-0.24241 -0.024529 -0.41705 0.37355 -0.12619 0.91899
-0.26055 -0.027641 -0.40938 0.42154 -0.12872 0.89763
0.15776 -0.066459 -0.41008 -0.36112 -0.083822 0.92874
0.13657 -0.047088 -0.416 -0.32002 -0.10674 0.94138
0.11769 -0.046173 -0.42163 -0.30201 -0.11589 0.94623
0.10025 -0.045365 -0.42773 -0.29837 -0.12397 0.94636
-0.23537 -0.044841 -0.42221 0.34999 -0.10126 0.93126
-0.26055 -0.047731 -0.41178 0.41195 -0.10682 0.90492
0.13695 -0.066047 -0.41805 -0.32379 -0.087936 0.94203
0.11844 -0.065503 -0.42377 -0.3095 -0.093376 0.9463
-0.23875 -0.065134 -0.42316 0.34762 -0.10276 0.93199
-0.26511 -0.06521 -0.41186 0.41781 -0.12384 0.90006
0.15777 -0.086675 -0.41172 -0.36124 -0.052437 0.931
0.13757 -0.086536 -0.41911 -0.33004 -0.053831 0.94243
0.11846 -0.085993 -0.4257 -0.30967 -0.059264 0.949
-0.24234 -0.081169 -0.4237 0.34136 -0.11401 0.93299
-0.26048 -0.080208 -0.4163 0.40455 -0.11813 0.90686
-0.27733 -0.081017 -0.40814 0.45383 -0.11024 0.88424
0.1578 -0.10655 -0.41254 -0.36157 -0.024483 0.93202
0.13781 -0.10667 -0.41987 -0.3324 -0.02329 0.94285
0.11791 -0.10701 -0.42652 -0.30419 -0.019852 0.9524
-0.25458 -0.098276 -0.42078 0.38325 -0.083282 0.91988
-0.27891 -0.099828 -0.40961 0.44158 -0.094808 0.8922
0.15782 -0.12557 -0.41272 -0.36171 -0.0050453 0.93228
0.13775 -0.12542 -0.42015 -0.33181 -0.0065575 0.94332
0.11764 -0.12556 -0.42686 -0.30154 -0.0051454 0.95344
-0.25764 -0.12201 -0.42119 0.38905 -0.037155 0.92047
-0.27935 -0.12361 -0.41101 0.43753 -0.030865 0.89867
0.1578 -0.14349 -0.41273 -0.36153 0.0033746 0.93236
0.13771 -0.14364 -0.42017 -0.33143 0.0048962 0.94347
0.11756 -0.14353 -0.42688 -0.30074 0.0037579 0.9537
-0.25932 -0.14617 -0.42071 0.39558 0.029873 0.91795
-0.28128 -0.14669 -0.41009 0.44624 0.033419 0.89429
0.15725 -0.16254 -0.41276 -0.359 0.021744 0.93308
0.13732 -0.16212 -0.4201 -0.3323 0.01913 0.94298
0.11753 -0.16138 -0.42677 -0.30385 0.013399 0.95262
-0.26008 -0.16842 -0.41869 0.40159 0.081863 0.91215
-0.28146 -0.16854 -0.4086 0.44464 0.083114 0.89184
0.15589 -0.18273 -0.41254 -0.35997 0.051356 0.93155
0.13631 -0.18057 -0.41991 -0.33632 0.040339 0.94088
0.11726 -0.17969 -0.42647 -0.30798 0.032181 0.95085
-0.2378 -0.18715 -0.42595 0.34957 0.098372 0.93173
-0.26112 -0.18881 -0.41589 0.41195 0.11504 0.90392
-0.28194 -0.18892 -0.40578 0.44936 0.11612 0.88577
0.15143 -0.20137 -0.41293 -0.36056 0.077541 0.92951
0.13374 -0.19655 -0.41996 -0.33866 0.065441 0.93863
0.1183 -0.19971 -0.42518 -0.31811 0.059989 0.94616
-0.23933 -0.20656 -0.42295 0.36486 0.12176 0.92307
-0.26099 -0.20645 -0.41351 0.41063 0.12065 0.90378
0.14202 -0.21732 -0.41495 -0.35595 0.087411 0.93041
0.11795 -0.22232 -0.42362 -0.32344 0.081062 0.94277
-0.24019 -0.22387 -0.4202 0.37347 0.12406 0.91931
-0.26069 -0.22348 -0.41136 0.40765 0.12009 0.90521
0.14186 -0.23771 -0.41313 -0.36515 0.084186 0.92713
0.12474 -0.24259 -0.41927 -0.33298 0.095252 0.93811
0.10352 -0.24053 -0.42639 -0.28119 0.10957 0.95338
-0.21862 -0.24195 -0.42611 0.32853 0.13405 0.93493
-0.23947 -0.24078 -0.41806 0.36627 0.12231 0.92243
-0.26076 -0.24007 -0.40941 0.40836 0.1152 0.90552
0.13919 -0.25696 -0.41246 -0.35416 0.10148 0.92966
0.11753 -0.25808 -0.41995 -0.30494 0.1162 0.94525
0.093185 -0.26198 -0.42644 -0.25124 0.13558 0.95838
-0.21845 -0.26003 -0.42309 0.32688 0.14411 0.93402
-0.23843 -0.25917 -0.41639 0.35592 0.13546 0.92465
-0.26158 -0.25908 -0.40616 0.41661 0.13452 0.89908
0.13139 -0.27561 -0.41297 -0.32895 0.13079 0.93525
0.11147 -0.27418 -0.41977 -0.2799 0.14213 0.94945
0.098525 -0.28198 -0.4219 -0.25029 0.15472 0.95573
0.077593 -0.28311 -0.42698 -0.21979 0.16577 0.96136
-0.19854 -0.27942 -0.42704 0.29759 0.16817 0.93976
-0.21741 -0.2782 -0.42036 0.3164 0.15498 0.93588
-0.23878 -0.27823 -0.41309 0.35936 0.15523 0.9202
0.11748 -0.29411 -0.41462 -0.28877 0.16484 0.9431
0.094629 -0.29698 -0.42059 -0.24245 0.16394 0.95621
0.077305 -0.30106 -0.42359 -0.20209 0.16962 0.96457
0.058681 -0.30201 -0.42745 -0.19094 0.18684 0.96366
-0.19703 -0.29788 -0.42353 0.28222 0.18353 0.94163
-0.21692 -0.29652 -0.41801 0.31155 0.16741 0.93537
-0.24007 -0.29776 -0.40857 0.3723 0.17978 0.91053
0.10796 -0.31582 -0.41334 -0.27466 0.19509 0.94154
0.088181 -0.31196 -0.41959 -0.22386 0.18388 0.95712
0.072643 -0.31545 -0.4221 -0.19497 0.18455 0.96329
0.057841 -0.31965 -0.4239 -0.17454 0.18825 0.96649
0.03967 -0.32068 -0.42726 -0.16318 0.20623 0.9648
-0.17582 -0.31748 -0.42561 0.23962 0.21699 0.94631
-0.19447 -0.31583 -0.42066 0.25825 0.19201 0.9468
-0.21799 -0.31597 -0.41379 0.32222 0.19112 0.92717
0.089902 -0.3328 -0.41447 -0.24035 0.22215 0.94492
0.068273 -0.33015 -0.42023 -0.19074 0.20187 0.96066
0.053444 -0.33407 -0.42194 -0.17005 0.20273 0.96436
0.03862 -0.33779 -0.42344 -0.14742 0.20455 0.96769
0.023301 -0.33675 -0.42609 -0.14061 0.21823 0.96572
-0.00034734 -0.34007 -0.42876 -0.11221 0.23829 0.96469
-0.12746 -0.34418 -0.4279 0.13315 0.28006 0.9507
-0.14977 -0.337 -0.42615 0.17517 0.2567 0.95048
-0.17199 -0.33544 -0.42194 0.20538 0.22046 0.95353
-0.19472 -0.33465 -0.41714 0.2584 0.20907 0.94314
-0.21943 -0.33651 -0.40836 0.33568 0.22673 0.91428
0.070834 -0.35149 -0.41447 -0.2126 0.24228 0.94663
0.049313 -0.34928 -0.41959 -0.16884 0.22318 0.96004
0.032922 -0.35358 -0.42107 -0.14 0.23006 0.96305
0.014545 -0.35468 -0.42298 -0.12009 0.23358 0.96489
-0.00074129 -0.35871 -0.42371 -0.096457 0.24366 0.96505
-0.016901 -0.35746 -0.42559 -0.076911 0.26103 0.96226
-0.03777 -0.35853 -0.42688 -0.048132 0.27919 0.95903
-0.059637 -0.36024 -0.42689 -0.0079626 0.29427 0.95569
-0.081292 -0.36035 -0.42665 0.030304 0.29972 0.95355
-0.10637 -0.35768 -0.42603 0.081465 0.29521 0.95195
-0.1286 -0.35792 -0.42332 0.11875 0.27376 0.95444
-0.14996 -0.35582 -0.4212 0.15168 0.25048 0.95617
-0.1722 -0.35506 -0.41754 0.1956 0.24509 0.94956
-0.1974 -0.35585 -0.41099 0.27949 0.25595 0.92541
0.051573 -0.37129 -0.41305 -0.18325 0.26436 0.94685
0.025949 -0.3729 -0.4171 -0.13627 0.25908 0.9562
0.008247 -0.36979 -0.42027 -0.10543 0.25177 0.96203
-0.0076827 -0.37475 -0.42032 -0.073853 0.27063 0.95985
-0.027267 -0.37678 -0.42071 -0.044269 0.28793 0.95663
-0.047243 -0.37843 -0.42087 -0.018048 0.30399 0.9525
-0.067091 -0.3789 -0.42086 0.0069373 0.30946 0.95089
-0.087784 -0.37795 -0.42068 0.036079 0.30395 0.952
-0.10911 -0.37619 -0.42014 0.070377 0.28804 0.95503
-0.13057 -0.37549 -0.41854 0.11044 0.27856 0.95405
-0.15416 -0.37898 -0.41391 0.1644 0.29301 0.94187
-0.1776 -0.37384 -0.41099 0.22068 0.29533 0.92956
0.0095346 -0.39089 -0.41374 -0.10259 0.28769 0.95221
-0.014775 -0.39396 -0.41495 -0.054532 0.29446 0.95411
-0.03537 -0.39552 -0.41524 -0.022917 0.30416 0.95235
-0.054519 -0.39635 -0.41514 -0.003124 0.31181 0.95014
-0.073148 -0.39622 -0.41513 0.011477 0.31114 0.9503
-0.093276 -0.39559 -0.41491 0.038323 0.3078 0.95068
-0.11484 -0.39551 -0.41369 0.078141 0.31302 0.94653
-0.13411 -0.39333 -0.41243 0.12231 0.31453 0.94134
0.59125 -0.41417 -0.37665 -0.51702 -0.65299 0.55344
0.54391 -0.39461 -0.37993 -0.19001 -0.80376 0.5638
0.5021 -0.38987 -0.37713 0.059727 -0.84215 0.53593
0.4751 -0.39215 -0.37423 0.17946 -0.8325 0.52416
0.45538 -0.40322 -0.38319 0.26935 -0.78468 0.55833
0.63262 -0.45297 -0.36081 -0.81649 -0.35397 0.45612
0.42861 -0.41326 -0.38053 0.36011 -0.73769 0.57108
0.40382 -0.43896 -0.39361 0.43169 -0.6304 0.64517
0.63906 -0.4946 -0.36811 -0.87896 -0.086721 0.46895
0.38336 -0.44187 -0.38217 0.46993 -0.60566 0.64213
0.63979 -0.52276 -0.36676 -0.90448 0.033584 0.42519
0.36326 -0.47249 -0.39118 0.56079 -0.46049 0.68808
0.64062 -0.54601 -0.36013 -0.93272 0.097442 0.34718
0.34528 -0.5063 -0.39418 0.63809 -0.29415 0.71156
0.63916 -0.56871 -0.35607 -0.94001 0.15578 0.30349
0.33037 -0.54897 -0.39069 0.70452 -0.05874 0.70725
0.63487 -0.59104 -0.35476 -0.93414 0.2102 0.28844
0.33027 -0.59046 -0.38693 0.72422 0.17548 0.66687
0.63015 -0.61175 -0.35372 -0.9284 0.24754 0.27713
0.33869 -0.61731 -0.38648 0.74468 0.27956 0.60605
0.62491 -0.6312 -0.35233 -0.92782 0.26771 0.25976
0.34269 -0.64354 -0.37664 0.76443 0.34836 0.54248
0.61723 -0.65403 -0.35522 -0.91347 0.30365 0.27088
0.35061 -0.65773 -0.37928 0.79092 0.32648 0.51755
0.61136 -0.67466 -0.35081 -0.90105 0.32476 0.28749
0.35347 -0.67444 -0.37243 0.81087 0.32254 0.48831
0.60104 -0.69305 -0.35974 -0.85986 0.37231 0.34932
0.3632 -0.6874 -0.38041 0.78074 0.34791 0.51904
0.58375 -0.71979 -0.36814 -0.77011 0.47676 0.42384
0.37611 -0.71134 -0.38128 0.71638 0.40122 0.5708
0.54214 -0.75588 -0.37975 -0.47767 0.69583 0.53633
0.39499 -0.74247 -0.37997 0.59214 0.53823 0.59972
0.49153 -0.77773 -0.37766 -0.11425 0.78941 0.60315
0.43785 -0.76614 -0.38589 0.2721 0.71593 0.64297
-0.038692 0.068402 -0.43166 -0.063571 -0.26873 0.96112
-0.05916 0.06938 -0.43231 -0.010032 -0.2629 0.96477
0.023888 0.04847 -0.4302 -0.17253 -0.25379 0.95175
0.0020676 0.052233 -0.43232 -0.11004 -0.25268 0.96127
-0.020931 0.054115 -0.43398 -0.08162 -0.23953 0.96745
-0.086416 0.066651 -0.43211 0.060706 -0.25215 0.96578
-0.10297 0.045637 -0.43578 0.1006 -0.19404 0.97582
0.042543 0.03166 -0.4305 -0.2241 -0.22017 0.94937
-0.042127 0.047774 -0.4372 -0.046845 -0.20519 0.9776
-0.064111 0.044987 -0.4382 0.0046587 -0.18791 0.98218
-0.082483 0.039906 -0.43874 0.052557 -0.16826 0.98434
-0.12871 0.04616 -0.43218 0.14252 -0.21619 0.96589
0.062248 0.01205 -0.42933 -0.259 -0.18672 0.94766
0.018342 0.03033 -0.43573 -0.14361 -0.20552 0.96806
-0.0061222 0.028147 -0.43869 -0.072468 -0.17311 0.98223
-0.026703 0.02466 -0.44027 -0.044045 -0.13662 0.98964
-0.046524 0.020489 -0.44138 -0.018099 -0.10155 0.99467
-0.065805 0.018071 -0.44176 0.010032 -0.084283 0.99639
-0.085992 0.018706 -0.44104 0.050647 -0.092257 0.99445
-0.10506 0.022195 -0.43955 0.073105 -0.13158 0.98861
-0.12246 0.019887 -0.43848 0.10429 -0.14569 0.98382
-0.14672 0.02538 -0.43386 0.16125 -0.18764 0.96891
0.03935 0.00958 -0.43601 -0.19827 -0.16297 0.9665
0.011727 0.0045206 -0.44051 -0.091506 -0.11076 0.98963
-0.011442 0.00074731 -0.44216 -0.032457 -0.071393 0.99692
-0.030644 -0.0020991 -0.44266 -0.013479 -0.043609 0.99896
-0.048785 -0.0038568 -0.44286 -0.0025786 -0.027652 0.99961
-0.067081 -0.0039712 -0.44277 0.012119 -0.027458 0.99955
-0.085094 -0.0022775 -0.4424 0.024678 -0.046025 0.99864
-0.10313 -0.0010513 -0.44177 0.040717 -0.066287 0.99697
-0.12303 0.00089309 -0.44052 0.077974 -0.096431 0.99228
-0.14034 -2.1079e-005 -0.43915 0.11413 -0.1195 0.98625
-0.16542 0.0065514 -0.43399 0.18533 -0.16607 0.96854
0.080865 -0.02703 -0.43047 -0.27533 -0.13654 0.9516
0.060648 -0.0091487 -0.43381 -0.24394 -0.14457 0.95895
0.032697 -0.014471 -0.43998 -0.13522 -0.091346 0.9866
0.0066129 -0.019623 -0.44264 -0.045159 -0.039829 0.99819
-0.014547 -0.022572 -0.44289 -0.0043466 -0.010337 0.99994
-0.031798 -0.02308 -0.4429 -0.0026238 -0.0052579 0.99998
-0.048649 -0.022191 -0.44289 -0.0048939 -0.014147 0.99989
-0.065941 -0.020551 -0.44292 -0.0034342 -0.031235 0.99951
-0.084258 -0.019442 -0.44294 0.0082766 -0.042992 0.99904
-0.10289 -0.018802 -0.44266 0.027065 -0.051286 0.99832
-0.12123 -0.018615 -0.44199 0.049339 -0.061434 0.99689
-0.14163 -0.017196 -0.44057 0.095063 -0.084927 0.99184
-0.15992 -0.017948 -0.43865 0.14401 -0.10419 0.98408
-0.18376 -0.010489 -0.43287 0.22248 -0.13976 0.96487
0.056006 -0.030813 -0.43782 -0.19752 -0.098711 0.97532
0.027158 -0.036693 -0.44194 -0.079834 -0.039914 0.99601
0.0033319 -0.040067 -0.44289 -0.012349 -0.0061738 0.9999
-0.014385 -0.039879 -0.44289 -0.0059667 -0.0080462 0.99995
-0.030125 -0.037429 -0.44296 -0.02003 -0.033234 0.99925
-0.04686 -0.034502 -0.44326 -0.026441 -0.063582 0.99763
-0.065519 -0.032253 -0.4435 -0.017183 -0.087662 0.996
-0.086409 -0.032463 -0.4435 0.015921 -0.079463 0.99671
-0.10409 -0.033561 -0.44333 0.02593 -0.064591 0.99757
-0.1225 -0.034733 -0.44282 0.04825 -0.060457 0.997
-0.14165 -0.035766 -0.4417 0.080533 -0.057991 0.99506
-0.1644 -0.034557 -0.43928 0.1457 -0.074651 0.98651
-0.1907 -0.03223 -0.43407 0.21574 -0.11536 0.96961
0.099184 -0.066303 -0.42999 -0.28774 -0.085384 0.95389
0.07811 -0.047386 -0.43424 -0.24778 -0.10376 0.96324
0.050034 -0.052356 -0.44021 -0.1378 -0.054061 0.98898
0.023641 -0.05599 -0.4427 -0.044657 -0.017716 0.99885
0.0032084 -0.05678 -0.44289 -0.011114 -0.0098214 0.99989
-0.011492 -0.053792 -0.4431 -0.036247 -0.041061 0.9985
-0.026162 -0.048023 -0.44345 -0.065452 -0.10196 0.99263
-0.044804 -0.042402 -0.4438 -0.060957 -0.15868 0.98545
-0.069824 -0.041862 -0.44494 -0.0068702 -0.18169 0.98333
-0.092047 -0.040546 -0.44404 0.033975 -0.13492 0.99027
-0.10807 -0.045134 -0.44396 0.053219 -0.11345 0.99212
-0.12612 -0.049342 -0.44351 0.067838 -0.073775 0.99496
-0.14341 -0.051177 -0.44242 0.082259 -0.060971 0.99474
-0.16297 -0.051571 -0.44056 0.12064 -0.07272 0.99003
-0.18079 -0.054396 -0.43847 0.1687 -0.078348 0.98255
-0.20567 -0.049374 -0.43232 0.26157 -0.090085 0.96097
0.074545 -0.068622 -0.4371 -0.21213 -0.062194 0.97526
0.046218 -0.072389 -0.4415 -0.099636 -0.024522 0.99472
0.022213 -0.074017 -0.44285 -0.030375 -0.0082387 0.9995
0.0061569 -0.07153 -0.44305 -0.041279 -0.033788 0.99858
-0.0049744 -0.065385 -0.44331 -0.10397 -0.10035 0.98951
-0.020036 -0.058599 -0.44467 -0.14455 -0.19091 0.97091
-0.045372 -0.049678 -0.44587 -0.080046 -0.23499 0.9687
-0.092951 -0.052796 -0.44676 0.068221 -0.19911 0.9776
-0.11721 -0.059462 -0.44521 0.10496 -0.13679 0.98502
-0.13117 -0.060569 -0.44381 0.089477 -0.096408 0.99131
-0.1453 -0.066121 -0.44321 0.10066 -0.076392 0.99198
-0.16272 -0.070157 -0.44169 0.11766 -0.051723 0.99171
-0.18549 -0.070564 -0.4385 0.18458 -0.050901 0.9815
-0.21145 -0.067518 -0.43214 0.26532 -0.07648 0.96112
0.09747 -0.087404 -0.43218 -0.2706 -0.045153 0.96163
0.071343 -0.089722 -0.43847 -0.18011 -0.021973 0.9834
0.044471 -0.09115 -0.44192 -0.082169 -0.007685 0.99659
0.024109 -0.089994 -0.44284 -0.049342 -0.019252 0.9986
0.011892 -0.085465 -0.44336 -0.098365 -0.066837 0.9929
0.0034944 -0.078369 -0.4439 -0.18228 -0.1463 0.9723
-0.13056 -0.075949 -0.44604 0.13963 -0.12667 0.98207
-0.14985 -0.083616 -0.44379 0.13929 -0.068971 0.98785
-0.16528 -0.086376 -0.44209 0.13067 -0.048252 0.99025
-0.18633 -0.087005 -0.4391 0.17634 -0.054015 0.98285
-0.21189 -0.086154 -0.43357 0.242 -0.091571 0.96595
0.096172 -0.10751 -0.43311 -0.25762 -0.014895 0.96613
0.070095 -0.10846 -0.43895 -0.16763 -0.0053289 0.98584
0.044856 -0.10838 -0.44189 -0.086022 -0.0061505 0.99627
0.027753 -0.10548 -0.44302 -0.085778 -0.035206 0.99569
0.019135 -0.10006 -0.44336 -0.16916 -0.091954 0.98129
0.0097431 -0.095667 -0.44558 -0.23965 -0.14089 0.96058
-0.14208 -0.098134 -0.44654 0.19285 -0.096572 0.97646
-0.15445 -0.097213 -0.44403 0.15541 -0.070838 0.98531
-0.16644 -0.10262 -0.44274 0.14415 -0.053043 0.98813
-0.18307 -0.1043 -0.4406 0.14806 -0.057679 0.98729
-0.19958 -0.10681 -0.43831 0.18352 -0.067272 0.98071
-0.225 -0.10198 -0.43168 0.2837 -0.078463 0.9557
0.095548 -0.12593 -0.43336 -0.25138 -0.0014918 0.96789
0.069875 -0.126 -0.43899 -0.16543 -0.00076687 0.98622
0.046913 -0.12477 -0.44177 -0.10659 -0.013035 0.99422
0.031915 -0.12182 -0.44326 -0.1274 -0.042554 0.99094
0.023299 -0.1187 -0.44446 -0.21175 -0.075406 0.97441
-0.15248 -0.11772 -0.44601 0.20158 -0.04987 0.9782
-0.16697 -0.12374 -0.44343 0.15847 -0.018718 0.98719
-0.18081 -0.12503 -0.44174 0.13145 -0.018825 0.99114
-0.20361 -0.12435 -0.43831 0.19733 -0.02501 0.98002
-0.23135 -0.12241 -0.431 0.30255 -0.033788 0.95253
0.095543 -0.1433 -0.43336 -0.25133 0.0014472 0.9679
0.070419 -0.14294 -0.4389 -0.17087 -0.0020936 0.98529
0.048651 -0.14183 -0.4418 -0.12397 -0.013289 0.9922
0.034434 -0.14089 -0.44345 -0.15394 -0.024045 0.98779
0.023148 -0.14188 -0.4459 -0.21748 -0.019592 0.97587
-0.15584 -0.14624 -0.44559 0.2193 0.037042 0.97495
-0.16637 -0.14582 -0.44342 0.14991 0.02704 0.98833
-0.18119 -0.14471 -0.44174 0.12854 0.013636 0.99161
-0.20564 -0.1441 -0.43801 0.20356 0.0091945 0.97902
-0.23401 -0.14497 -0.43024 0.31464 0.019516 0.94901
0.095684 -0.16101 -0.4333 -0.25369 0.0087253 0.96725
0.071182 -0.16049 -0.43876 -0.1785 0.0025756 0.98394
0.049013 -0.16015 -0.44197 -0.12827 -0.0014896 0.99174
0.033157 -0.1623 -0.44378 -0.14425 0.012937 0.98946
0.017231 -0.1713 -0.44613 -0.18003 0.071757 0.98104
-0.15415 -0.16946 -0.44411 0.19686 0.092933 0.97602
-0.1635 -0.16521 -0.44309 0.11893 0.049734 0.99166
-0.1809 -0.16328 -0.44131 0.1221 0.03051 0.99205
-0.20815 -0.1648 -0.43701 0.22386 0.045668 0.97355
-0.23616 -0.16715 -0.42823 0.33314 0.0692 0.94033
0.095848 -0.17978 -0.43296 -0.25853 0.025927 0.96565
0.071219 -0.17883 -0.43863 -0.18366 0.015427 0.98287
0.047662 -0.17934 -0.44198 -0.11797 0.019882 0.99282
0.029558 -0.1838 -0.44365 -0.10284 0.051444 0.99337
0.017007 -0.19104 -0.44417 -0.11072 0.08287 0.99039
0.0031808 -0.195 -0.446 -0.15684 0.13329 0.97859
-0.13944 -0.19335 -0.4444 0.21866 0.16294 0.9621
-0.14822 -0.18686 -0.44323 0.13694 0.095512 0.98596
-0.16021 -0.18161 -0.44267 0.08599 0.043009 0.99537
-0.18188 -0.18151 -0.44059 0.13196 0.041967 0.99037
-0.21126 -0.18495 -0.43478 0.25491 0.07643 0.96394
0.095416 -0.19943 -0.43233 -0.26506 0.049004 0.96299
0.069486 -0.19717 -0.4386 -0.18038 0.035499 0.98296
0.045358 -0.19783 -0.44165 -0.099397 0.040908 0.99421
0.027279 -0.20062 -0.44294 -0.073721 0.053375 0.99585
0.012272 -0.20432 -0.4437 -0.083086 0.076483 0.9936
-5.3838e-005 -0.2103 -0.44402 -0.095532 0.10401 0.98998
-0.01549 -0.21414 -0.44575 -0.12066 0.1614 0.97949
-0.11922 -0.21487 -0.44439 0.18466 0.21784 0.95836
-0.13157 -0.2076 -0.44319 0.14157 0.13441 0.98076
-0.14145 -0.19985 -0.44306 0.069222 0.054614 0.99611
-0.15899 -0.19762 -0.44226 0.073781 0.032301 0.99675
-0.18526 -0.19984 -0.43931 0.16572 0.054505 0.98467
-0.21479 -0.2045 -0.43181 0.29021 0.1011 0.95161
0.089814 -0.21899 -0.43256 -0.25571 0.080415 0.9634
0.064617 -0.21413 -0.43866 -0.16055 0.071351 0.98445
0.046085 -0.21657 -0.44066 -0.10563 0.063476 0.99238
0.02644 -0.21613 -0.44224 -0.071247 0.046386 0.99638
0.0086795 -0.21762 -0.44322 -0.054305 0.049967 0.99727
-0.0061072 -0.22147 -0.44366 -0.064658 0.079203 0.99476
-0.018716 -0.22674 -0.44387 -0.069833 0.10592 0.99192
-0.032816 -0.22775 -0.44512 -0.079772 0.15645 0.98446
-0.058083 -0.23065 -0.44616 -0.016086 0.20362 0.97892
-0.089976 -0.22964 -0.44514 0.088808 0.21795 0.97191
-0.11083 -0.22495 -0.44342 0.10825 0.14205 0.98392
-0.12334 -0.21779 -0.44313 0.059591 0.063851 0.99618
-0.13818 -0.21375 -0.44281 0.036473 0.022841 0.99907
-0.16073 -0.21499 -0.44163 0.091257 0.035267 0.9952
-0.19019 -0.21976 -0.43712 0.21504 0.082937 0.97308
-0.21736 -0.2228 -0.42871 0.31598 0.11334 0.94197
0.074485 -0.23631 -0.43446 -0.20678 0.10719 0.9725
0.048112 -0.2338 -0.43945 -0.13733 0.066887 0.98827
0.025321 -0.2321 -0.44174 -0.073337 0.045326 0.99628
0.0066784 -0.23299 -0.44269 -0.045814 0.044405 0.99796
-0.010021 -0.23422 -0.44319 -0.037052 0.04768 0.99818
-0.025018 -0.2364 -0.4436 -0.045888 0.070181 0.99648
-0.043725 -0.23967 -0.44398 -0.027842 0.11138 0.99339
-0.066067 -0.24109 -0.44397 0.015087 0.1324 0.99108
-0.087809 -0.23901 -0.44352 0.051327 0.11092 0.9925
-0.10429 -0.23413 -0.44308 0.040514 0.05723 0.99754
-0.11902 -0.23022 -0.44287 0.015666 0.0167 0.99974
-0.13892 -0.23039 -0.44271 0.043888 0.018483 0.99887
-0.16523 -0.23433 -0.44021 0.13626 0.05784 0.98898
-0.19453 -0.23969 -0.43387 0.25846 0.11147 0.95957
0.067077 -0.25802 -0.43341 -0.20893 0.13117 0.96909
0.044123 -0.25093 -0.43875 -0.13959 0.10068 0.98508
0.026052 -0.25152 -0.44063 -0.092856 0.079791 0.99248
0.0059225 -0.24993 -0.44203 -0.049775 0.054532 0.99727
-0.011618 -0.25014 -0.44267 -0.034634 0.047777 0.99826
-0.029264 -0.25069 -0.44306 -0.023211 0.050685 0.99844
-0.04794 -0.25129 -0.44326 -0.0065598 0.057368 0.99833
-0.067139 -0.25091 -0.44317 0.012165 0.054204 0.99846
-0.084908 -0.24894 -0.44296 0.016806 0.033861 0.99929
-0.10105 -0.24658 -0.44289 0.0067218 0.0095687 0.99993
-0.11882 -0.2465 -0.44288 0.013659 0.0087816 0.99987
-0.14266 -0.25027 -0.4419 0.081273 0.046491 0.99561
-0.17127 -0.25604 -0.43778 0.19663 0.10419 0.97493
-0.1975 -0.25959 -0.43004 0.28818 0.13968 0.94733
0.049144 -0.27503 -0.43434 -0.17471 0.15717 0.97199
0.024888 -0.26912 -0.43918 -0.11319 0.11858 0.98647
0.0076513 -0.2701 -0.44053 -0.077773 0.09624 0.99232
-0.012032 -0.26842 -0.44175 -0.042603 0.068712 0.99673
-0.029976 -0.26781 -0.44235 -0.027518 0.054602 0.99813
-0.048303 -0.26659 -0.44273 -0.011834 0.040781 0.9991
-0.066295 -0.26563 -0.44285 -0.00016064 0.030208 0.99954
-0.083368 -0.26487 -0.44287 0.0007269 0.021664 0.99977
-0.10108 -0.26533 -0.44286 0.0070531 0.026254 0.99963
-0.12275 -0.26877 -0.44237 0.052262 0.060047 0.99683
-0.14838 -0.27367 -0.43948 0.1362 0.10931 0.98463
-0.17585 -0.27807 -0.43356 0.23985 0.15489 0.95838
0.030514 -0.29381 -0.4342 -0.15134 0.17823 0.97228
0.0070043 -0.28901 -0.4385 -0.1033 0.14467 0.98407
-0.010339 -0.29138 -0.43956 -0.072642 0.1311 0.9887
-0.029362 -0.28794 -0.44104 -0.050649 0.092258 0.99445
-0.048718 -0.28657 -0.4418 -0.01834 0.07698 0.99686
-0.066323 -0.28718 -0.44192 -0.0062453 0.076577 0.99704
-0.084502 -0.28791 -0.44193 0.0057483 0.081327 0.99667
-0.10464 -0.2901 -0.44137 0.035599 0.10276 0.99407
-0.12863 -0.29487 -0.43919 0.10261 0.14874 0.98354
-0.15473 -0.29835 -0.43499 0.1904 0.18898 0.96335
-0.17806 -0.299 -0.42873 0.2569 0.19977 0.94556
0.012492 -0.31436 -0.43258 -0.13236 0.20441 0.96989
-0.01252 -0.31428 -0.43591 -0.099215 0.18815 0.97712
-0.032202 -0.30851 -0.4388 -0.059254 0.16197 0.98502
-0.048821 -0.3127 -0.43869 -0.028569 0.17083 0.98489
-0.068143 -0.31348 -0.43885 -0.0051788 0.16849 0.98569
-0.088177 -0.31456 -0.4385 0.023202 0.17894 0.98359
-0.11096 -0.31721 -0.43699 0.08155 0.20639 0.97507
-0.13542 -0.32229 -0.43256 0.14773 0.23841 0.95986
-0.15928 -0.31617 -0.4297 0.20894 0.23162 0.9501
-0.027712 -0.33503 -0.43239 -0.071162 0.24082 0.96796
-0.051709 -0.33788 -0.43318 -0.031501 0.24604 0.96875
-0.073372 -0.33912 -0.43315 0.0080331 0.25479 0.96696
-0.095265 -0.33962 -0.43234 0.053111 0.26635 0.96241
-0.11512 -0.33739 -0.43129 0.10391 0.26818 0.95775
0.61421 -0.45466 -0.38864 -0.70473 -0.36936 0.60575
0.57395 -0.43241 -0.40725 -0.43207 -0.57093 0.69811
0.52342 -0.40733 -0.40157 -0.079281 -0.75309 0.65312
0.48161 -0.41328 -0.40465 0.14874 -0.74395 0.65148
0.44605 -0.4217 -0.40135 0.31281 -0.70454 0.63701
0.61823 -0.48408 -0.39647 -0.76728 -0.20546 0.60751
0.42333 -0.44024 -0.40768 0.40417 -0.62888 0.6642
0.39941 -0.46814 -0.41497 0.49019 -0.50281 0.71197
0.6286 -0.51115 -0.38809 -0.87147 -0.099643 0.48022
0.38369 -0.46456 -0.40146 0.50728 -0.50644 0.69727
0.63309 -0.54152 -0.38038 -0.91879 0.043338 0.39235
0.37315 -0.50121 -0.41485 0.57511 -0.34499 0.74178
0.63049 -0.56723 -0.38005 -0.91403 0.13914 0.38103
0.36266 -0.54212 -0.42074 0.64327 -0.14112 0.75252
0.34937 -0.53296 -0.40637 0.6677 -0.17122 0.72447
0.62717 -0.58895 -0.37886 -0.91136 0.18837 0.36597
0.34437 -0.57342 -0.40479 0.7164 0.053355 0.69565
0.62267 -0.60947 -0.37764 -0.90986 0.22307 0.34984
0.35284 -0.60009 -0.40988 0.72329 0.16456 0.67065
0.61744 -0.6292 -0.37923 -0.90049 0.25249 0.35408
0.35584 -0.63067 -0.40118 0.74573 0.27624 0.60628
0.60897 -0.64829 -0.38497 -0.87086 0.30501 0.38545
0.36669 -0.65086 -0.40618 0.75569 0.27991 0.5921
0.60163 -0.67314 -0.37874 -0.84559 0.36812 0.38661
0.36428 -0.67206 -0.39144 0.77192 0.32878 0.5441
0.5825 -0.69785 -0.39151 -0.75229 0.42556 0.50296
0.3843 -0.69556 -0.40191 0.67542 0.4105 0.61261
0.56063 -0.724 -0.3981 -0.62089 0.52843 0.57901
0.41695 -0.72237 -0.41201 0.46671 0.52971 0.70823
0.52359 -0.7505 -0.40114 -0.32456 0.71153 0.62321
0.47171 -0.7534 -0.40656 0.068746 0.70492 0.70595
0.41603 -0.73648 -0.40108 0.45295 0.53742 0.71135
-0.0071205 -0.07595 -0.44575 -0.21084 -0.19986 0.95687
-0.03149 -0.068199 -0.44903 -0.145 -0.23194 0.96186
-0.063546 -0.055675 -0.44817 -0.019553 -0.25319 0.96722
-0.083317 -0.072835 -0.45212 0.076179 -0.20443 0.97591
-0.056189 -0.074883 -0.45358 -0.041283 -0.21719 0.97526
-0.10859 -0.074307 -0.44897 0.13992 -0.1734 0.97486
0.01056 -0.11813 -0.44772 -0.25578 -0.082037 0.96325
-0.0084615 -0.093092 -0.44983 -0.22341 -0.16465 0.96072
-0.034297 -0.094878 -0.45496 -0.13155 -0.14787 0.98022
-0.06448 -0.097828 -0.45728 0.0064948 -0.12127 0.9926
-0.092161 -0.096916 -0.45545 0.1103 -0.12886 0.98551
-0.11805 -0.098813 -0.45152 0.16976 -0.12895 0.97701
-0.010956 -0.11837 -0.45372 -0.21257 -0.077305 0.97408
-0.040049 -0.1203 -0.45832 -0.090211 -0.057081 0.99429
-0.0677 -0.12115 -0.45916 0.019168 -0.051517 0.99849
-0.091328 -0.1198 -0.45759 0.089234 -0.075184 0.99317
-0.11107 -0.12315 -0.45573 0.15467 -0.073897 0.9852
-0.1335 -0.11964 -0.45065 0.22273 -0.068907 0.97244
0.0074118 -0.14408 -0.44992 -0.24228 0.0043271 0.9702
-0.016057 -0.14415 -0.45543 -0.18275 0.01701 0.98301
-0.04316 -0.14387 -0.45889 -0.073293 0.017152 0.99716
-0.066784 -0.14349 -0.4597 0.0024175 0.0052179 0.99998
-0.090255 -0.1442 -0.45887 0.078233 0.0023461 0.99693
-0.11728 -0.14538 -0.45528 0.18794 0.014546 0.98207
-0.1408 -0.14527 -0.44953 0.24881 0.024863 0.96823
-0.0015313 -0.17052 -0.45046 -0.21136 0.10303 0.97196
-0.02308 -0.16532 -0.45556 -0.15232 0.096884 0.98357
-0.043098 -0.16764 -0.45752 -0.084488 0.094925 0.99189
-0.067264 -0.16767 -0.45871 -0.0016796 0.084955 0.99638
-0.093323 -0.16971 -0.4573 0.097074 0.096394 0.9906
-0.12176 -0.17163 -0.45267 0.21516 0.11555 0.96972
-0.14259 -0.17184 -0.4469 0.25334 0.11836 0.96011
-0.020968 -0.19124 -0.45107 -0.15478 0.17241 0.97279
-0.045759 -0.18888 -0.45511 -0.088024 0.16797 0.98185
-0.069003 -0.19453 -0.45507 0.0046914 0.18861 0.98204
-0.097762 -0.19573 -0.45306 0.12488 0.1956 0.9727
-0.12373 -0.19613 -0.44784 0.22399 0.19727 0.95442
-0.043066 -0.21287 -0.44933 -0.083298 0.2192 0.97212
-0.075299 -0.21678 -0.44961 0.030605 0.24412 0.96926
-0.10271 -0.21439 -0.44778 0.14879 0.24702 0.95752
0.58827 -0.46813 -0.42078 -0.59738 -0.41982 0.68329
0.52927 -0.43043 -0.42291 -0.15348 -0.65707 0.73804
0.48745 -0.44321 -0.43543 0.11147 -0.62279 0.77441
0.53305 -0.45404 -0.442 -0.20307 -0.55355 0.80768
0.4517 -0.44106 -0.42296 0.29203 -0.63068 0.719
0.61948 -0.50851 -0.40391 -0.83681 -0.16693 0.52143
0.42496 -0.46768 -0.43109 0.41031 -0.51892 0.74991
0.619 -0.53958 -0.40876 -0.84147 0.017882 0.54001
0.40051 -0.4987 -0.43408 0.52304 -0.37031 0.76766
0.61576 -0.56369 -0.41014 -0.83683 0.10373 0.53755
0.38682 -0.53661 -0.43778 0.57456 -0.19422 0.79508
0.61306 -0.58523 -0.40935 -0.84102 0.15344 0.51878
0.38551 -0.57116 -0.44285 0.60223 -0.03461 0.79757
