-0.067636 0.23121 -0.24211 0.84663 0.45416 -0.27739
0.11265 0.31706 -0.44596 -0.49764 -0.37974 0.77984
0.097752 0.23737 0.23813 -0.42626 0.44494 -0.78761
0.060915 0.25043 -0.15646 -0.06438 0.39424 -0.91675
-0.078236 0.24696 -0.25126 0.88376 0.42886 -0.18722
0.16144 0.26825 -0.20456 -0.74379 0.21596 -0.63256
0.058472 0.25437 -0.15454 -0.039952 0.48951 -0.87108
-0.089928 0.26673 -0.26411 0.90784 0.40659 -0.10255
0.096312 0.28189 -0.24469 -0.30992 0.29069 0.90524
0.11857 0.28666 0.23308 -0.59125 0.34642 -0.72829
0.18264 0.2938 -0.22831 -0.90153 0.22096 -0.37206
0.060637 0.28401 -0.13713 -0.061599 0.46375 -0.88382
-0.099084 0.28767 -0.27242 0.92779 0.3726 -0.019496
0.19031 0.30829 -0.24174 -0.9525 0.18869 -0.23906
0.10408 0.37788 -0.41589 -0.41163 -0.51351 0.75291
0.10729 0.30306 0.24878 -0.53042 0.32357 -0.78355
-0.10633 0.3084 -0.2692 0.95738 0.28873 -0.0078463
0.090453 0.39563 -0.41068 -0.29302 -0.48648 0.82309
0.11501 0.32292 0.25127 -0.56143 0.327 -0.76017
0.12504 0.29729 0.19368 -0.65578 0.61102 0.44341
-0.11167 0.34494 -0.29503 0.96674 0.15069 0.20667
0.12653 0.32225 0.17263 -0.67626 0.46376 0.57236
0.12707 0.32429 0.33708 -0.68816 0.45377 -0.56614
-0.11534 0.35852 -0.28943 0.96602 0.13733 0.21895
0.19412 0.37956 -0.2881 -0.97753 -0.10774 0.18117
0.11474 0.3432 0.26127 -0.55969 0.3882 -0.73215
0.099998 0.30978 0.35083 -0.4305 0.67803 -0.59577
0.10681 0.42421 -0.38839 -0.43777 -0.42592 0.7918
0.17307 0.37196 -0.3256 -0.78692 0.27082 0.55444
0.20266 0.4131 -0.30868 -0.89982 -0.0046017 0.43623
0.095493 0.43366 -0.39605 -0.34843 -0.16141 0.92333
0.17639 0.46183 -0.32868 -0.73327 -0.3925 0.5552
-0.05819 0.46015 -0.3602 0.4504 -0.080511 0.88919
0.15951 0.47862 -0.33591 -0.66146 -0.34579 0.66551
0.14864 0.4904 -0.34175 -0.6311 -0.30352 0.71386
0.092379 0.52228 -0.36137 -0.28677 -0.41544 0.86323
0.11284 0.5065 0.35123 -0.57288 -0.23702 -0.78462
0.12711 0.51489 -0.34796 -0.50479 -0.37483 0.77762
0.093042 0.53558 -0.35467 -0.32524 -0.39438 0.85947
0.043087 0.534 -0.3664 -0.106 -0.2929 0.95025
0.11129 0.57525 0.31842 -0.54436 -0.44154 -0.71324
0.12833 0.63549 0.2268 -0.70201 -0.65757 -0.27345
0.13768 0.67308 0.11844 -0.79168 -0.59174 -0.15194
0.14955 0.66428 0.006057 -0.886 -0.45641 -0.08179
0.15342 0.81308 -0.055762 -0.9457 0.084515 0.31385
0.071353 -1.0435 0.25214 -0.088153 0.87867 -0.46922
-0.16318 -1.0305 -0.31874 0.34426 0.75048 0.56415
0.098143 -1.0076 -0.30669 -0.26125 0.59445 0.76051
0.11515 -0.0798 -0.57726 -0.47535 0.62699 0.61719
0.093748 -0.92468 -0.32694 -0.26115 -0.089212 0.96117
0.087487 -0.90898 0.30696 -0.23324 -0.19875 -0.95189
0.12306 -0.083115 -0.56676 -0.55724 0.57344 0.60054
0.094904 0.098308 -0.57986 -0.27153 -0.62741 0.72981
0.0004615 -0.91535 -0.35218 -0.33486 -0.1855 0.92383
0.083067 -0.91778 0.035916 -0.15434 -0.070501 0.9855
0.10153 -0.91044 0.30245 -0.33897 -0.056204 -0.93912
0.13241 -0.098123 -0.54004 -0.64818 0.63486 0.42049
-0.12117 -0.8481 -0.32897 0.13348 -0.72335 0.67746
0.10246 -0.91712 -0.32367 -0.34826 0.010652 0.93734
0.062136 -0.91526 -0.047872 0.046817 0.076086 -0.996
0.10729 -0.90838 0.3012 -0.39661 0.054809 -0.91635
0.10684 -0.90884 -0.32257 -0.39209 0.1032 0.91412
0.082472 -0.89869 -0.047138 -0.10471 0.04044 -0.99368
0.098398 -0.88917 0.3054 -0.34499 -0.0057689 -0.93859
0.073185 -0.89148 -0.045778 -0.099375 0.10499 -0.9895
0.11169 -0.89352 0.043213 -0.39556 0.04193 0.91748
0.10964 -0.86894 0.29953 -0.42007 -0.076518 -0.90426
0.076202 -0.85561 -0.045118 -0.12955 -0.078264 -0.98848
0.1175 -0.87347 0.045322 -0.44787 0.012625 0.89401
0.10337 0.18279 -0.52151 -0.37195 -0.36691 0.85266
0.095211 -0.0036033 -0.36146 -0.27578 0.72717 -0.62862
0.10435 -0.82621 0.044523 -0.36716 -0.15302 0.91749
0.11649 -0.81758 0.28786 -0.47002 -0.28247 -0.83623
0.096051 -0.79411 -0.31027 -0.28418 -0.40911 0.86711
0.075176 -0.83497 -0.051448 -0.11929 0.11 -0.98675
0.094143 -0.81665 0.29595 -0.30896 0.058383 -0.94928
0.092417 -0.80355 -0.32085 -0.267 0.015018 0.96358
0.093413 -0.78913 -0.31999 -0.2578 0.046296 0.96509
0.081342 0.068116 -0.28606 -0.13709 0.73714 -0.66169
0.096081 -0.78597 0.29547 -0.32828 0.18839 -0.9256
0.10142 -0.75579 -0.31429 -0.29271 -0.06785 0.95379
0.11559 -0.7739 0.042744 -0.44039 0.069351 0.89513
0.082181 -0.76271 -0.3233 -0.18102 0.087672 0.97956
0.048304 -0.75379 -0.048801 0.15147 0.045956 -0.98739
0.093318 -0.74584 0.29807 -0.29358 -0.079648 -0.95261
0.10769 -0.73991 0.039655 -0.36251 -0.095131 0.92711
0.094786 -0.73789 0.29666 -0.27153 -0.027596 -0.96203
0.092613 -0.72495 -0.31723 -0.2498 -0.15699 0.95549
0.11056 0.41501 -0.39233 -0.41988 -0.45873 0.78312
0.05327 -0.73138 -0.048381 0.12623 0.093143 -0.98762
0.097459 -0.7215 -0.31505 -0.25587 -0.019322 0.96652
0.11111 -0.7374 0.043168 -0.39267 0.1429 0.90851
0.1261 0.40749 -0.37709 -0.58277 -0.067803 0.8098
0.10948 0.463 -0.37947 -0.41847 -0.39703 0.81685
0.1058 0.48758 -0.3718 -0.39932 -0.349 0.84779
0.04995 -0.71972 -0.04584 0.13297 0.22916 -0.96426
0.095669 -0.72325 0.034394 -0.28036 0.17681 0.94347
0.10233 -0.71524 0.035169 -0.29464 0.2482 0.92281
0.07269 -0.69785 0.30598 -0.09443 0.14202 -0.98535
0.066242 -0.68412 0.30817 -0.029949 0.13632 -0.99021
0.063249 -0.6737 0.3097 -2.1859e-005 0.16362 -0.98652
0.097389 -0.86016 -0.32982 -0.32242 -0.025936 0.94624
0.11969 0.59699 -0.30364 -0.51532 -0.51721 0.68333
0.08447 -0.66993 -0.32363 -0.12378 0.17244 0.97721
0.082286 -1.0513 -0.23542 -0.18192 0.97007 0.16087
0.084625 -0.4389 -0.31336 -0.13379 -0.24949 0.95909
0.06876 -1.0537 -0.2028 -0.055125 0.99838 -0.014017
0.071801 -0.63329 -0.33144 0.0021691 0.15425 0.98803
0.047111 -0.61929 -0.023505 0.18817 0.1104 -0.97591
0.077298 -0.62933 0.0083939 -0.079963 0.12483 0.98895
0.080129 -0.61247 0.0070892 -0.081279 0.077954 0.99364
0.069216 -0.61109 0.32075 -0.015835 0.11505 -0.99323
0.074733 -1.0545 -0.18742 -0.069695 0.99321 0.093122
0.11351 0.30374 -0.22481 -0.49694 0.745 0.445
0.047854 -0.59957 -0.021594 0.15575 0.077542 -0.98475
0.076217 -0.59168 -0.33661 -0.041994 0.045037 0.9981
0.073101 -0.59282 0.0054015 -0.054675 0.012568 0.99843
0.076653 -1.056 -0.16998 -0.090196 0.99455 0.052351
0.12342 0.12761 -0.22163 -0.55116 0.56476 0.61422
0.13543 0.65779 -0.19614 -0.67091 -0.69009 0.2714
0.060439 -0.57592 -0.018767 0.071943 0.01897 -0.99723
0.072342 -0.57211 -0.33673 -0.0032397 -0.019066 0.99981
0.080703 -0.56519 0.007149 -0.086935 -0.066527 0.99399
0.058085 -0.56488 0.32323 0.051625 -0.0037005 -0.99866
0.062413 -0.55408 -0.019193 0.052202 -0.023943 -0.99835
0.13806 0.16902 -0.19328 -0.70319 -0.45696 0.54472
0.13486 0.117 -0.19844 -0.67469 0.41584 0.60981
0.068555 -0.53965 0.32281 -0.009223 -0.080533 -0.99671
0.13653 0.67058 -0.16058 -0.72246 -0.64922 0.23783
0.063106 -0.54069 -0.019563 0.045272 -0.026346 -0.99863
0.064944 -0.53139 -0.019738 0.026892 0.012222 -0.99956
0.14739 0.66549 -0.13401 -0.78938 -0.5884 0.1751
0.079349 -0.51538 -0.33151 -0.073311 -0.14789 0.98628
0.066498 -0.51972 -0.019095 0.011351 0.070916 -0.99742
0.058693 -0.4909 0.31518 0.045543 -0.21729 -0.97504
0.077805 -0.49672 -0.32885 -0.05787 -0.15906 0.98557
0.058395 -0.51063 -0.018617 0.048521 0.15543 -0.98665
0.10376 -0.50996 0.013962 -0.31608 0.055561 0.9471
0.056589 -0.47432 0.31134 0.067267 -0.23042 -0.97076
0.061165 -0.47064 -0.32345 0.064679 -0.24879 0.9664
0.10674 -0.50426 0.014297 -0.35634 0.13559 0.92446
0.071534 -0.5091 -0.018712 -0.084939 0.31365 -0.94573
0.056525 -0.45616 0.3065 0.067219 -0.25768 -0.96389
0.079011 -0.44976 -0.31738 -0.069933 -0.27785 0.95808
0.11606 -0.49647 0.016906 -0.43907 0.1928 0.87752
0.057309 -0.449 0.30447 0.059383 -0.19775 -0.97845
0.092719 -0.4987 -0.018307 -0.25086 0.34306 -0.9052
0.12745 -0.16614 0.0058844 -0.64422 0.63254 -0.42997
0.10392 -0.48361 -0.017168 -0.36264 0.32331 -0.87405
0.081812 -0.43215 0.30058 -0.14179 -0.18206 -0.97301
0.10938 -0.47853 0.0086309 -0.4175 0.31679 0.85167
0.10219 -0.42079 -0.30413 -0.30172 -0.21668 0.92845
0.10762 -0.47475 -0.014902 -0.39983 0.36667 -0.84005
0.089109 -0.41205 0.29482 -0.21476 -0.26028 -0.94135
0.12516 -0.4524 -0.016363 -0.56145 0.27643 -0.77997
0.12566 -0.46139 0.011208 -0.54554 0.32078 0.77426
0.16189 0.63762 0.0028083 -0.92625 -0.36425 -0.096883
0.1175 -0.44771 1.5757e-005 -0.49487 0.32518 0.80583
0.10408 -0.42124 0.0052173 -0.40693 0.22731 -0.88472
0.13 -0.42475 0.0010982 -0.58652 0.21748 0.78019
0.1031 -0.38943 0.2858 -0.40449 -0.18162 -0.89633
0.10007 -0.16048 -0.037545 -0.35742 0.73559 0.57546
0.11278 -0.17237 -0.0082178 -0.45723 0.76464 0.45417
0.13911 -0.1452 -0.0059939 -0.72122 0.41512 0.55454
0.14193 -0.34723 -0.25782 -0.72923 -0.20692 0.65224
0.11653 -0.3706 0.0065336 -0.5243 0.070675 -0.8486
0.1243 -0.37619 -0.011267 -0.55623 0.082732 0.8269
0.12259 -0.3515 0.26496 -0.60388 -0.16417 -0.77999
0.13171 -0.30359 -0.012051 -0.6452 0.10222 0.75714
0.11583 -0.35384 0.00829 -0.53413 0.078516 -0.84175
0.12594 -0.35925 -0.010831 -0.57096 0.044852 0.81975
0.14274 -0.327 -0.25175 -0.73677 -0.10223 0.66837
0.11712 -0.34391 0.0082884 -0.54309 0.11077 -0.83233
0.13185 -0.34401 -0.0075265 -0.61631 0.067867 0.78458
0.14429 -0.31295 -0.24839 -0.75723 -0.067295 0.64967
0.081653 -0.55169 0.0082778 -0.10716 -0.086044 0.99051
0.14532 -0.3008 -0.24596 -0.77295 -0.057262 0.63188
0.11933 -0.30965 0.012453 -0.58077 0.16285 -0.79761
0.083327 -0.94562 0.033354 -0.11861 0.034372 0.99235
0.11984 -0.78694 0.046782 -0.45947 0.032838 0.88759
0.13372 0.26425 0.20691 -0.66355 -0.12966 -0.73681
0.1385 -0.2922 -4.2125e-005 -0.7117 0.15696 -0.68473
0.13738 -0.26722 0.24622 -0.70835 -0.086149 -0.70058
0.13271 0.25764 0.20453 -0.65818 -0.40763 -0.63296
0.13816 -0.2855 -0.0086979 -0.6965 0.096744 0.71101
0.065112 -1.0574 0.1497 0.0032821 0.99838 0.056734
0.11235 0.05158 0.24035 -0.49238 -0.028413 -0.86992
0.1535 -0.19087 0.21082 -0.85786 -0.067856 -0.50939
0.14399 -0.26476 -0.0046941 -0.74792 0.064678 0.66063
0.066512 -1.0577 0.17004 -0.032654 0.99944 0.0068678
0.14755 -0.22753 0.22738 -0.79757 -0.14227 -0.58622
0.1366 -0.28602 0.24921 -0.69066 -0.067137 -0.72006
0.068881 -1.0573 0.19985 -0.056336 0.99581 -0.072007
0.12852 -0.35922 0.26222 -0.6112 -0.20818 -0.76361
0.076542 -0.98822 0.30483 -0.089089 0.39752 -0.91326
0.15915 -0.18744 0.013972 -0.89373 -0.0065547 0.44855
0.14579 0.29941 0.24285 -0.78572 0.61201 0.089966
0.13327 0.54364 0.31751 -0.65057 -0.30821 -0.69409
0.14208 0.48235 0.33037 -0.74622 -0.11737 -0.65527
0.15705 -0.14597 0.0094376 -0.89296 0.059052 0.44625
0.15328 0.40056 0.34217 -0.85477 -0.10891 -0.50745
0.15564 -0.13011 0.0054753 -0.87575 0.033702 0.48159
0.15443 -0.11959 0.0020524 -0.85847 0.060068 0.50934
0.10891 -0.17026 0.025899 -0.46325 0.72738 -0.50628
0.13907 -0.10531 0.23419 -0.72789 0.13652 -0.67197
0.10145 -0.14752 0.055626 -0.38635 0.60419 -0.69692
0.098525 -0.15759 0.042045 -0.34682 0.79689 -0.49465
0.13471 -0.084034 0.24242 -0.67112 0.055351 -0.73928
0.13015 -0.062547 0.24614 -0.62715 -0.027971 -0.7784
0.14677 -0.067287 -0.21942 -0.78271 0.019432 0.62208
0.12385 -0.037095 0.24919 -0.57231 -0.10708 -0.81302
0.13768 -0.043455 -0.22901 -0.69094 -0.043476 0.7216
0.10625 -0.099387 -0.40678 -0.38612 0.65235 -0.65219
0.13205 -0.031094 -0.2333 -0.63877 -0.03554 0.76858
0.1121 -0.011287 0.25192 -0.50718 -0.19052 -0.84052
0.084179 -0.061715 -0.37615 -0.20404 0.40151 -0.89284
0.10504 0.071358 -0.5948 -0.33454 -0.51735 0.78768
0.087975 -0.009424 -0.35921 -0.24728 0.36168 -0.89891
0.096224 0.0040449 -0.35815 -0.33095 0.36318 -0.87096
0.12636 0.032749 -0.23663 -0.58661 0.079965 0.80591
0.11749 0.065852 0.23665 -0.54741 0.0035783 -0.83686
0.12204 0.11223 -0.54952 -0.54013 -0.45827 0.70587
0.093851 0.011003 -0.34451 -0.26218 0.69531 -0.66918
0.12504 0.084488 0.23221 -0.57873 -0.0073776 -0.81549
0.11118 0.13133 -0.54667 -0.47666 -0.44956 0.75544
0.094438 0.024921 -0.33117 -0.26805 0.6449 -0.71572
0.11462 0.046215 -0.32312 -0.4279 0.56886 -0.70235
0.12055 0.12186 0.23213 -0.578 -0.18381 -0.79507
0.12242 0.15395 -0.52452 -0.54405 -0.43112 0.71982
0.11847 0.16379 -0.52198 -0.505 -0.36034 0.7843
0.12934 0.17667 0.19521 -0.62466 -0.45507 -0.63459
0.070255 0.077839 -0.27363 -0.070083 0.73026 -0.67956
0.12386 0.18571 -0.50963 -0.52526 -0.27414 0.80558
0.068245 0.089188 -0.26132 -0.049978 0.70132 -0.71109
0.070502 0.10089 -0.25015 -0.072548 0.67307 -0.73601
0.066854 0.12064 -0.23325 -0.036067 0.60542 -0.79509
0.13956 0.12942 -0.20279 -0.71614 0.42969 0.55001
0.094912 0.23482 -0.50334 -0.27279 -0.41437 0.86826
0.091854 0.15156 -0.25514 -0.24221 0.4182 0.87546
0.064413 0.15006 -0.21361 -0.011658 0.56487 -0.8251
0.090989 0.25758 -0.49314 -0.23356 -0.49971 0.83411
0.11777 0.19709 -0.25972 -0.46637 0.22239 0.85618
0.11536 0.27651 -0.47133 -0.43411 -0.4809 0.76176
0.079484 0.17901 -0.19443 -0.14044 0.54221 -0.82842
0.12769 0.24601 0.21721 -0.65376 -0.17551 -0.73607
0.08067 0.20041 -0.18219 -0.18002 0.45008 -0.87466
0.11848 0.30424 -0.44976 -0.47159 -0.49799 0.72774
0.10611 0.22926 -0.17682 -0.37641 0.39314 -0.8389
0.15502 0.24956 -0.19687 -0.86757 0.13169 0.47956
0.12041 0.22145 0.20397 -0.53864 0.44787 -0.71364
-0.011644 0.2249 -0.18125 0.44395 0.43287 -0.78456
0.10547 0.20879 0.20682 -0.41365 0.63742 -0.65007
-0.031061 0.23276 -0.18928 0.53913 0.44542 -0.7148
0.10883 0.24787 -0.1698 -0.40889 0.3678 -0.83518
0.092043 0.28339 -0.23945 -0.2441 -0.023054 0.96948
0.13681 0.26858 0.22158 -0.68795 0.1649 -0.70677
0.14424 0.25938 -0.18992 -0.65483 0.30466 -0.69165
0.10191 0.25607 -0.16352 -0.33389 0.46637 -0.81916
0.08996 0.26108 -0.23929 -0.22327 0.33948 0.91373
-0.076191 0.25626 -0.22972 0.83565 0.42155 -0.35212
0.1218 0.35903 -0.41803 -0.55423 -0.46004 0.69368
0.083368 0.2649 -0.15097 -0.20359 0.50874 -0.8365
0.13315 0.28815 0.2216 -0.63785 0.32451 -0.69845
-0.090141 0.27379 -0.24823 0.8893 0.42349 -0.17263
0.13149 0.30835 0.23167 -0.63348 0.29967 -0.71338
0.087548 0.29759 -0.13549 -0.24626 0.48971 -0.83638
0.12687 0.324 -0.23493 -0.59431 0.23004 0.77064
0.13025 0.32426 0.23942 -0.6307 0.30552 -0.71336
-0.11111 0.32547 -0.26424 0.96612 0.25776 -0.013548
0.19525 0.34015 -0.24702 -0.99119 0.08897 -0.098124
0.10309 0.39884 -0.40424 -0.35453 -0.38827 0.85062
0.072594 0.29572 -0.13353 -0.093475 0.64849 -0.75546
0.066678 0.29936 -0.12935 -0.034308 0.70164 -0.7117
0.12535 0.323 -0.23719 -0.57763 0.41437 0.70331
0.12448 0.33644 0.24983 -0.6167 0.34333 -0.70839
0.19706 0.35738 -0.26569 -0.99359 0.070139 0.088641
0.07893 0.29388 -0.14019 -0.15445 0.84286 -0.51549
0.13062 0.35176 0.25239 -0.63743 0.38208 -0.6691
-0.11456 0.3855 -0.30112 0.93194 0.052135 0.35885
0.19367 0.37135 -0.28744 -0.94828 0.083959 0.30613
0.18135 0.36485 -0.3068 -0.83708 0.30241 0.4559
0.14527 0.36512 0.24128 -0.77049 0.43976 -0.46146
0.1598 0.42137 0.31775 -0.91012 -0.21879 -0.35186
-0.10907 0.40044 -0.31341 0.87509 0.034275 0.48274
0.15139 0.44237 0.32493 -0.84067 -0.16387 -0.51616
0.20169 0.45136 -0.28842 -0.89528 -0.30292 0.32666
0.19424 0.46288 -0.2989 -0.86662 -0.32703 0.37686
0.11101 0.46651 -0.37739 -0.43375 -0.27562 0.85784
-0.089309 0.45437 -0.33699 0.65817 -0.0227 0.75253
0.18007 0.47663 -0.31244 -0.79294 -0.33213 0.51081
0.1689 0.48943 -0.32051 -0.75284 -0.27754 0.59683
0.11509 0.50369 -0.36027 -0.44107 -0.3676 0.81874
0.13573 0.50208 0.33271 -0.69601 -0.19287 -0.69165
0.15132 0.51037 -0.33047 -0.65295 -0.3236 0.68479
0.11082 0.54558 -0.3416 -0.4215 -0.41954 0.80394
0.11008 0.57772 -0.32375 -0.46534 -0.46559 0.75279
0.13261 0.58688 0.28988 -0.65517 -0.51937 -0.54864
0.12156 0.59109 -0.30496 -0.50229 -0.38135 0.77607
0.14247 0.62078 0.22116 -0.74534 -0.58682 -0.31641
0.061517 -0.97976 -0.050124 0.10501 0.33002 -0.93812
0.11398 -0.92135 -0.31951 -0.33565 -0.17512 0.92557
0.061828 -0.91749 -0.048386 0.10272 -0.16749 -0.98051
0.10696 -0.90968 0.042861 -0.26176 -0.19537 0.94515
0.12525 0.083013 -0.57551 -0.47393 -0.55678 0.6822
0.067877 -0.91804 -0.048273 0.041415 -0.024047 -0.99885
0.12802 0.10033 -0.55717 -0.49716 -0.64129 0.58445
0.020375 -0.91489 -0.34649 -0.27655 -0.094796 0.95631
0.12369 -0.91459 -0.31447 -0.42856 -0.010215 0.90346
0.11093 -0.9087 0.043891 -0.34528 -0.073628 0.93561
0.13306 -0.11613 -0.48286 -0.57277 0.81947 -0.019987
0.13425 0.10885 -0.54124 -0.56831 -0.64164 0.51509
0.11607 -0.90493 0.046011 -0.3967 0.020257 0.91773
0.14981 0.10443 -0.52573 -0.73274 -0.51184 0.44845
0.12879 -0.89909 -0.31195 -0.47772 0.005762 0.87849
0.13218 -0.89448 -0.30999 -0.54728 0.09113 0.83197
0.1149 -0.020851 -0.37457 -0.42769 0.25153 -0.86822
0.13484 -0.87877 -0.31039 -0.54879 0.065594 0.83338
0.13637 -0.84387 -0.30959 -0.56246 -0.10793 0.81975
0.14376 -0.84416 0.065467 -0.64797 -0.10503 0.75439
0.14866 0.16765 -0.49533 -0.71279 -0.22437 0.66452
0.090052 -0.82526 -0.055088 -0.18034 -0.11864 -0.97642
0.14856 -0.79935 0.25188 -0.71666 -0.41819 -0.55814
0.122 0.21415 -0.50024 -0.47119 -0.33269 0.81688
0.1416 -0.81233 -0.29432 -0.60326 -0.13338 0.78631
0.10129 -0.82843 -0.055295 -0.24887 0.088429 -0.96449
0.12075 -0.81945 0.28182 -0.49586 -0.062889 -0.86612
0.12989 -0.82717 0.055548 -0.51673 0.075851 0.85278
0.13285 -0.81884 -0.30321 -0.53276 0.058297 0.84425
0.09364 -0.81714 -0.05236 -0.21622 0.085136 -0.97262
0.090073 -0.79877 -0.049914 -0.15986 0.063297 -0.98511
0.13951 -0.80793 0.060476 -0.59435 0.058848 0.80205
0.1304 -0.79777 -0.30427 -0.50428 0.044907 0.86237
0.13124 0.31123 -0.43537 -0.54771 -0.47613 0.68798
0.086046 -0.77912 -0.048338 -0.15067 -0.016001 -0.98846
0.11402 -0.79092 0.2843 -0.41133 0.10802 -0.90507
0.12979 -0.77421 -0.30649 -0.51572 -0.013167 0.85666
0.10018 -0.76815 -0.052198 -0.23774 -0.031975 -0.9708
0.082922 -0.76641 -0.048539 -0.10904 0.049774 -0.99279
0.12958 0.36757 -0.40524 -0.54865 -0.37703 0.74621
0.12695 -0.74616 -0.30618 -0.47109 -0.032621 0.88148
0.12185 0.38571 -0.40076 -0.47325 -0.38698 0.79138
0.076424 -0.73338 -0.047625 -0.044059 -0.028924 -0.99861
0.11843 -0.73229 0.047085 -0.42028 -0.039827 0.90652
0.13481 0.4014 -0.38371 -0.5839 -0.41368 0.69852
0.10109 -0.73393 0.29545 -0.2907 0.1082 -0.95068
0.077886 -0.73036 -0.047191 -0.058677 0.20405 -0.9772
0.099259 -0.72069 0.2978 -0.26513 0.13315 -0.95498
0.14063 0.39215 -0.3653 -0.63381 0.069872 0.77033
0.11651 -0.71603 -0.31044 -0.35523 0.10457 0.92891
0.10076 -0.7185 -0.048247 -0.24355 0.217 -0.9453
0.13089 -0.72095 0.050286 -0.49243 0.19766 0.84761
0.13133 0.48809 -0.35661 -0.54783 -0.30873 0.77754
0.099842 -0.69715 -0.31717 -0.23439 0.091218 0.96785
0.078489 -0.70469 -0.041095 -0.067144 0.25811 -0.96378
0.097494 -0.68878 0.30379 -0.21091 0.1829 -0.96024
0.096816 -0.68359 -0.31945 -0.20413 0.13101 0.97014
0.070242 -0.68773 -0.036385 0.017761 0.2601 -0.96542
0.11757 -0.6997 0.035665 -0.38791 0.29828 0.8721
0.13343 0.58454 -0.3023 -0.56607 -0.48043 0.66989
0.11363 -0.67623 0.026681 -0.32679 0.25058 0.91127
0.081282 -0.66682 0.31026 -0.082251 0.18516 -0.97926
0.11706 -0.8007 -0.30802 -0.40581 -0.40772 0.81798
0.073711 -0.66665 -0.030726 -0.01693 0.26855 -0.96312
0.1116 -0.66445 0.022621 -0.30843 0.24677 0.91868
0.087437 -1.0502 -0.23779 -0.11034 0.97268 0.20426
0.12665 -0.7299 -0.30468 -0.45417 -0.06213 0.88874
0.095683 -0.65648 -0.32489 -0.17088 0.21075 0.96249
0.064178 -0.64681 -0.026193 0.078396 0.20175 -0.9763
0.08305 -0.65014 0.3136 -0.11032 0.19117 -0.97534
0.081976 -1.0531 -0.20498 -0.055726 0.99842 0.0077369
0.09901 0.29622 -0.13881 -0.22607 0.71391 -0.66274
0.14565 0.6337 -0.23387 -0.67127 -0.69678 0.25278
0.10174 -0.64522 0.015018 -0.25334 0.1858 0.94937
0.07639 -0.63527 0.31694 -0.043719 0.17397 -0.98378
0.077914 -1.0535 -0.19594 -0.05896 0.99706 0.04888
0.14786 0.63782 -0.21772 -0.70998 -0.6684 0.22173
0.084406 -0.61098 -0.33441 -0.080029 0.11145 0.99054
0.1512 0.32695 -0.20265 -0.74895 0.59482 0.292
0.11827 -0.59359 0.015251 -0.3683 0.020275 0.92948
0.14476 0.135 -0.20492 -0.67961 0.5798 0.44941
0.14131 0.28872 -0.2178 -0.64878 -0.58554 0.48604
0.15187 0.64124 -0.19237 -0.74962 -0.61624 0.24148
0.11709 -0.57617 0.014929 -0.3582 -0.022379 0.93338
0.070145 -0.58844 0.32281 -0.003202 0.056464 -0.9984
0.072322 -1.0468 -0.1107 -0.003038 0.91136 -0.41159
0.14079 0.30837 -0.16782 -0.60682 -0.78596 0.11846
0.095968 -0.753 -0.049153 -0.19212 0.043114 -0.98042
0.098893 -0.55339 -0.33308 -0.1884 -0.07472 0.97925
0.13613 0.31181 -0.14886 -0.56161 -0.82519 0.060497
0.11337 -0.54293 0.016161 -0.32578 -0.091677 0.94099
0.15266 0.11514 -0.17729 -0.76499 0.43249 0.47722
0.10024 -0.53835 -0.33155 -0.19217 -0.09861 0.97639
0.15655 0.11719 -0.16845 -0.80582 0.32975 0.49185
0.10252 -0.53475 0.013526 -0.26122 -0.041908 0.96437
0.10667 -0.52122 0.015042 -0.30263 -0.0017341 0.95311
0.16132 0.6581 -0.08975 -0.84773 -0.52274 0.089923
0.10313 -0.47278 -0.32006 -0.25001 -0.23137 0.94019
0.091026 -0.46608 0.30709 -0.18185 -0.24369 -0.95265
0.16254 0.65812 -0.066874 -0.85628 -0.51632 -0.013929
0.097381 -0.45401 0.30304 -0.20978 -0.23533 -0.94901
0.13581 -0.17198 -0.019873 -0.64621 0.68574 -0.33492
0.11385 -0.49141 -0.023754 -0.37445 0.18248 -0.90911
0.12221 -0.48468 -0.026064 -0.45303 0.2483 -0.85622
0.10377 -0.43138 -0.30707 -0.27369 -0.24235 0.93078
0.14605 -0.47572 0.032828 -0.65524 0.17912 0.73388
0.13836 -0.46118 -0.030003 -0.62249 0.26633 -0.73592
0.13705 -0.46618 0.022135 -0.60265 0.26372 0.75317
0.13495 -0.392 -0.27908 -0.55182 -0.28541 0.78361
0.141 -0.42797 -0.020567 -0.64327 0.20836 -0.73674
0.14477 -0.44095 0.018983 -0.67349 0.24645 0.6969
0.13449 -0.38114 0.26479 -0.5639 -0.26184 -0.78324
0.12937 -0.37037 0.26461 -0.58324 -0.23858 -0.77648
0.1143 -0.16512 -0.019751 -0.42977 0.76325 0.48245
0.14297 -0.40319 0.0069055 -0.66301 0.13391 0.73654
0.14579 -0.37668 -0.017107 -0.7101 0.043818 -0.70274
0.14712 -0.38356 0.0080584 -0.69505 0.068689 0.71568
0.12721 -0.172 0.0072787 -0.50945 0.74578 0.42928
0.13889 -0.34991 0.25033 -0.64192 -0.18008 -0.74532
0.14753 -0.35858 -0.017872 -0.72276 0.038172 -0.69004
0.14865 -0.36786 0.0085473 -0.70623 0.043294 0.70666
0.15993 -0.1478 0.028343 -0.83236 0.39114 0.39266
0.14941 -0.34731 -0.019104 -0.73598 0.057044 -0.6746
0.15251 -0.34972 0.012409 -0.74467 0.037267 0.66639
0.15413 -0.32349 -0.23788 -0.76477 -0.1373 0.62951
0.15045 -0.33655 -0.019172 -0.74129 0.073794 -0.66712
0.1545 -0.29641 0.23029 -0.78269 -0.057123 -0.61979
0.15463 0.15785 0.17496 -0.77797 -0.22557 -0.58641
0.14856 0.25468 0.1945 -0.71843 -0.049016 -0.69387
0.073865 -1.0352 0.077754 -0.018467 0.79278 0.60922
0.12381 -0.72647 0.046988 -0.47434 0.16547 0.86465
0.16933 -0.16755 0.1685 -0.9445 -0.11297 -0.30846
0.11261 0.199 0.19478 -0.36203 0.72093 -0.59092
0.15568 -0.28823 0.011389 -0.79326 0.045377 0.60719
0.13393 -0.83282 0.059739 -0.57011 -0.04159 0.82051
0.14058 0.11777 0.21752 -0.63874 -0.16893 -0.75065
0.14019 0.26285 0.21786 -0.63637 0.16329 -0.7539
0.15754 -0.28018 -0.020932 -0.81703 0.08734 -0.56994
0.1597 -0.26944 0.016437 -0.83182 0.023829 0.55454
0.16055 -0.24516 0.21279 -0.83896 -0.13666 -0.52675
0.13464 -0.027833 0.24001 -0.58494 -0.10485 -0.80427
0.16208 -0.25 0.018903 -0.85194 0.0047651 0.52361
0.13958 -0.35764 0.25207 -0.62551 -0.23904 -0.74269
0.16987 -0.22853 0.035215 -0.91096 -0.034512 0.41105
0.12518 -0.85222 0.28947 -0.5331 -0.10841 -0.83908
0.10521 -0.43633 0.29637 -0.28429 -0.24709 -0.92635
0.17027 0.38577 0.19991 -0.92758 0.27003 0.25821
0.16401 0.36646 0.20105 -0.89601 0.33225 0.29457
0.15319 0.5482 0.29639 -0.76491 -0.29334 -0.57347
0.15338 0.51998 0.30551 -0.77411 -0.23563 -0.58756
0.17298 -0.16041 0.15166 -0.97341 -0.05585 -0.22214
0.16592 0.46768 0.29984 -0.87409 -0.065842 -0.48128
0.17369 -0.16031 0.14999 -0.97441 0.075884 -0.21158
0.16811 -0.14382 0.17755 -0.91845 0.16937 -0.35743
0.12798 -0.15424 0.028894 -0.51638 0.66996 -0.53338
0.12147 -0.14644 -0.039458 -0.44764 0.67715 0.58403
0.15192 -0.092967 0.22366 -0.7553 0.14468 -0.63921
0.13087 -0.14312 -0.030829 -0.54262 0.73105 0.41367
0.14601 -0.067648 0.23199 -0.69371 0.0251 -0.71982
0.1499 -0.063945 -0.21609 -0.72804 0.073709 0.68156
0.14551 -0.040354 -0.22175 -0.67872 0.013208 0.73428
0.12889 -0.094134 -0.54961 -0.52383 0.67922 0.51406
0.12248 -0.0080169 0.24495 -0.50498 -0.13476 -0.85255
0.12196 -0.08543 -0.56542 -0.4523 0.67916 0.57808
0.10691 -0.05364 -0.37834 -0.30505 0.36532 -0.87948
0.14144 -0.019264 -0.22538 -0.63672 -0.022287 0.77077
0.13544 -0.057393 -0.58409 -0.5527 0.48352 0.67877
0.11121 -0.020768 -0.37193 -0.40072 0.11748 -0.90864
0.11868 0.00844 0.24461 -0.46429 -0.16777 -0.86965
0.13667 0.0015325 -0.22808 -0.59418 -0.054845 0.80246
0.11325 0.018398 -0.61455 -0.41273 -0.13552 0.90072
0.11797 0.033082 0.23912 -0.463 -0.19442 -0.86478
0.11274 -0.010552 -0.36997 -0.40627 0.31073 -0.85929
0.14162 0.048593 -0.22564 -0.63622 0.00075884 0.77151
0.14239 0.072153 -0.22325 -0.65303 -0.05943 0.755
0.14469 0.02242 -0.37359 -0.68388 0.56995 -0.45548
0.13533 0.046148 -0.33874 -0.58957 0.50776 -0.62816
0.11147 0.047814 -0.31944 -0.39867 0.65879 -0.63801
0.10718 0.052945 -0.31204 -0.35362 0.69605 -0.62488
0.14474 0.1651 0.19181 -0.66265 -0.46449 -0.58749
0.14027 0.19056 -0.49603 -0.61697 -0.23491 0.75111
0.14751 0.13601 -0.19981 -0.69497 0.38142 0.60953
0.15277 0.21051 0.1922 -0.76861 -0.34894 -0.53618
0.14176 0.16586 0.20594 -0.65643 0.19823 -0.72788
0.086944 0.13812 -0.22328 -0.14144 0.55505 -0.81971
0.13729 0.16458 0.21294 -0.64249 0.28926 -0.7096
0.13598 0.17447 -0.24426 -0.54221 0.33409 0.77097
0.11475 0.26417 -0.47935 -0.3979 -0.47859 0.7827
0.098357 0.16592 -0.20796 -0.25533 0.5431 -0.79991
0.11725 0.18788 -0.20137 -0.40723 0.44725 -0.79632
0.11795 0.2964 -0.45567 -0.45231 -0.52002 0.72457
0.11588 0.20917 -0.19009 -0.39476 0.3683 -0.84174
0.11885 0.22418 -0.18651 -0.47158 0.32506 -0.81972
0.15091 0.25797 -0.19295 -0.75012 -0.075862 0.65694
0.15341 0.25825 -0.19098 -0.70341 0.0090904 0.71073
0.12833 0.21998 0.19676 -0.52986 0.43861 -0.72586
0.13495 0.24308 -0.18873 -0.58421 0.33116 -0.74096
0.16408 0.24043 -0.17526 -0.8911 0.26603 0.36764
0.16794 0.25601 -0.16381 -0.90571 0.18931 0.37927
0.15317 0.26571 -0.20388 -0.74625 0.19758 0.63567
0.13849 0.26116 -0.18382 -0.60826 0.41956 -0.67379
0.13457 0.27775 -0.22648 -0.56747 0.25141 0.78407
0.14208 0.28522 0.21181 -0.66402 0.25875 -0.70152
-0.067239 0.26446 -0.20452 0.73827 0.46094 -0.49242
0.16478 0.27547 -0.20413 -0.79028 0.38713 -0.47495
0.14443 0.31438 -0.22605 -0.63976 0.061659 0.7661
-0.09137 0.2903 -0.22606 0.85384 0.41365 -0.31598
0.17895 0.29565 -0.2156 -0.88236 0.29281 -0.36838
0.15053 0.31127 0.21394 -0.73491 0.26902 -0.62253
0.12849 0.3019 -0.1523 -0.52245 0.45374 -0.72192
0.1409 0.33683 -0.22469 -0.63915 0.012586 0.76898
-0.10039 0.3074 -0.23004 0.90098 0.34757 -0.25968
0.14818 0.32589 0.22258 -0.72141 0.27059 -0.63746
-0.11186 0.33134 -0.25176 0.95668 0.28668 -0.050725
0.1464 0.34487 0.23252 -0.70781 0.28046 -0.64835
-0.11359 0.34177 -0.23505 0.94172 0.28794 -0.17395
0.098197 0.31051 -0.12471 -0.21794 0.6704 -0.70927
0.14955 0.37143 0.2442 -0.72621 0.37693 -0.57493
0.21444 0.40196 -0.27474 -0.96169 0.062909 0.26683
0.20709 0.4503 -0.27235 -0.93144 -0.24807 0.26623
0.17182 0.41527 0.21776 -0.94826 0.28109 -0.1476
-0.11209 0.43135 -0.31311 0.79688 0.11979 0.59215
0.19488 0.46379 -0.29474 -0.87144 -0.24841 0.42295
0.13838 0.47747 -0.35516 -0.58022 -0.31717 0.75016
0.19018 0.47919 -0.29254 -0.85377 -0.26656 0.44724
0.18381 0.48755 -0.30023 -0.83053 -0.20227 0.51895
0.1688 0.50565 -0.3137 -0.74426 -0.27887 0.60689
0.12816 0.53624 -0.33626 -0.51395 -0.39316 0.76242
0.14991 0.53208 -0.3209 -0.63892 -0.36671 0.67625
0.12567 0.55774 -0.32598 -0.50857 -0.43568 0.74266
0.1578 0.59791 0.22644 -0.8134 -0.53645 -0.22494
0.15862 0.61413 0.19256 -0.82697 -0.53078 -0.18544
0.16591 0.61044 0.1558 -0.87789 -0.44499 -0.17689
0.16992 0.61638 0.00083269 -0.92176 -0.32985 -0.20385
0.12183 -0.98035 -0.31457 -0.3331 0.32575 0.88483
0.1115 -0.98262 0.29975 -0.30484 0.35383 -0.88424
0.11616 -0.94083 0.038806 -0.26309 -0.014018 0.96467
0.12372 -0.91439 0.29729 -0.38549 -0.23592 -0.89204
0.15138 0.020325 -0.59237 -0.63973 -0.15253 0.75331
0.12042 -0.91748 -0.31564 -0.39567 -0.10938 0.91185
0.14426 -0.082423 -0.54994 -0.57752 0.66763 0.46984
0.1514 0.065855 -0.56738 -0.655 -0.47176 0.59027
0.1523 0.082702 -0.55098 -0.663 -0.53808 0.52049
0.091157 -0.90631 -0.048442 -0.10351 -0.014879 -0.99452
0.13986 -0.89841 0.28212 -0.54685 -0.1326 -0.82666
0.15148 -0.095521 -0.5159 -0.66532 0.6969 0.26774
0.16255 0.091666 -0.52189 -0.76908 -0.55743 0.31271
0.14689 -0.88925 -0.30008 -0.58145 0.038831 0.81265
0.11033 -0.88196 -0.052869 -0.29613 0.0071015 -0.95512
0.14564 -0.89337 0.062661 -0.60515 0.026887 0.79566
0.16788 0.037035 -0.40619 -0.82386 -0.064332 -0.56314
0.11121 -0.87186 -0.052093 -0.29372 0.040343 -0.95504
0.10686 -0.83951 -0.052372 -0.26385 -0.17734 -0.94812
0.15954 -0.84627 0.081354 -0.72267 -0.12783 0.67927
0.15305 -0.82268 0.26119 -0.68696 -0.27604 -0.67223
0.16747 -0.83015 0.092935 -0.81696 -0.069784 0.57246
0.15727 -0.8362 0.25323 -0.72257 0.15681 -0.67328
0.16823 -0.82787 0.091292 -0.81318 0.082829 0.57609
0.15133 0.27138 -0.4459 -0.66053 -0.42789 0.61694
0.14913 -0.79672 0.26169 -0.64144 0.12382 -0.75712
0.14928 0.31116 -0.41937 -0.63734 -0.46716 0.61283
0.13475 -0.79012 0.27661 -0.54358 0.1853 -0.81865
0.15076 0.3244 -0.40633 -0.64256 -0.51428 0.56801
0.13433 -0.76181 -0.30312 -0.48403 -0.048651 0.8737
0.15361 -0.76651 0.069051 -0.68322 -0.0044238 0.7302
0.15389 -0.75555 0.068997 -0.68386 0.017453 0.72941
0.13523 -0.75839 0.27849 -0.56272 0.0019288 -0.82664
0.12682 -0.73901 -0.059091 -0.41645 -0.016429 -0.90901
0.13782 -0.7485 0.27645 -0.56949 0.078504 -0.81824
0.11374 -0.73068 -0.055447 -0.32692 0.074819 -0.94208
0.15099 -0.72736 -0.28971 -0.61568 0.03979 0.78699
0.15557 -0.73605 0.072022 -0.70161 0.13405 0.69984
0.16907 0.39798 -0.34305 -0.81829 -0.33534 0.46685
0.12832 -0.7245 -0.059303 -0.43566 0.18329 -0.88125
0.14772 -0.73054 0.063474 -0.60312 0.20585 0.77063
0.12485 -0.70307 -0.30855 -0.39665 0.10573 0.91186
0.12281 -0.71259 -0.054655 -0.37639 0.2894 -0.8801
0.13829 -0.71507 0.052778 -0.52656 0.27844 0.80325
0.1149 -0.69895 0.29679 -0.32061 0.18833 -0.9283
0.13172 -0.69326 -0.30646 -0.42308 0.14003 0.8952
0.11562 -0.7012 -0.047329 -0.30653 0.31141 -0.89948
0.1135 -0.67891 -0.31581 -0.28332 0.17184 0.94351
0.11157 -0.68537 -0.041089 -0.264 0.28035 -0.92288
0.14491 -0.6808 0.043629 -0.52202 0.26955 0.80922
0.10499 -0.67232 0.30538 -0.22014 0.19365 -0.95605
0.096077 -0.67363 -0.034442 -0.14524 0.26462 -0.95335
0.12552 -0.49329 -0.31692 -0.36274 -0.19054 0.9122
0.14187 0.58167 -0.2961 -0.58111 -0.40938 0.70337
0.12551 -0.66418 -0.31506 -0.35854 0.19699 0.91249
0.099902 -0.65854 0.30925 -0.19376 0.18922 -0.96263
0.16053 -0.80294 -0.27499 -0.73101 -0.37842 0.56782
0.1491 0.60116 -0.28008 -0.63499 -0.47779 0.60705
0.10711 -0.64469 -0.029559 -0.21938 0.1805 -0.9588
0.17004 -0.81033 -0.25575 -0.84971 -0.2348 0.47208
0.1605 0.61924 -0.23199 -0.73019 -0.64192 0.234
0.11254 -0.64102 -0.32477 -0.27366 0.18763 0.94335
0.14033 -0.64249 0.031048 -0.50599 0.15854 0.84785
0.090849 -1.0526 -0.19665 -0.056758 0.99831 0.01213
0.13512 -0.40234 -0.28306 -0.49841 -0.31223 0.80877
0.10253 -0.62008 -0.025061 -0.21661 0.10712 -0.97036
0.16193 0.62422 -0.20888 -0.7674 -0.62462 0.14474
0.11113 -0.62306 -0.3283 -0.25954 0.13959 0.95559
0.12493 -0.61819 0.01935 -0.39755 0.090919 0.91306
0.10942 -0.61484 0.31498 -0.2623 0.13652 -0.95528
0.08837 -1.0532 -0.18971 -0.075818 0.99435 0.074316
0.099678 -0.6013 -0.022865 -0.19717 0.053588 -0.9789
0.088677 -1.0542 -0.17772 -0.077482 0.99513 0.060874
0.12509 -0.59677 -0.32634 -0.35418 0.056094 0.93349
0.10231 -0.58588 -0.022925 -0.22172 0.030936 -0.97462
0.10544 -0.58917 0.31858 -0.22699 0.063831 -0.9718
0.16106 0.63404 -0.18209 -0.75201 -0.62288 0.21565
0.10442 -0.56447 -0.023218 -0.24016 -0.0078055 -0.9707
0.10194 -0.56362 0.31986 -0.21373 -0.016314 -0.97676
0.1204 -0.5574 0.017087 -0.35228 -0.078436 0.9326
0.16061 0.15238 -0.18585 -0.76075 0.43578 0.48099
0.17065 0.26775 -0.17216 -0.86487 0.346 0.36371
0.10251 -0.54503 -0.023148 -0.22557 -0.026798 -0.97386
0.10617 -0.53993 0.31778 -0.25074 -0.077829 -0.96492
0.16425 0.13584 -0.18296 -0.78439 -0.34535 0.51523
0.17374 -0.12916 -0.14287 -0.87741 0.40071 0.26379
0.17204 0.62823 -0.13197 -0.86729 -0.48734 0.10154
0.10567 -0.52875 -0.024345 -0.24127 -0.014201 -0.97035
0.13924 -0.5309 0.028966 -0.50486 -0.080331 0.85946
0.11872 -0.51572 0.31066 -0.33546 -0.14449 -0.93091
0.17915 0.15611 -0.14153 -0.92451 0.17548 0.33835
0.11353 -0.51521 -0.32509 -0.28362 -0.14957 0.9472
0.17206 -0.14555 -0.10558 -0.86684 0.49296 0.074686
0.11221 -0.51387 -0.026022 -0.30352 0.012392 -0.95274
0.14237 -0.51653 0.031704 -0.51886 -0.048673 0.85347
0.10511 -0.49354 0.31064 -0.24324 -0.21275 -0.94635
0.18109 0.13415 -0.12155 -0.94861 0.027488 0.31526
0.14438 -0.50471 0.033603 -0.5415 -0.035349 0.83996
0.10728 -0.50568 -0.024224 -0.27329 0.062065 -0.95993
0.11646 -0.50078 -0.026836 -0.35816 0.14147 -0.92288
0.14235 -0.49672 0.032489 -0.56157 0.016323 0.82727
0.12107 -0.46566 0.2986 -0.35893 -0.2504 -0.89915
0.13191 -0.45992 -0.30583 -0.42615 -0.25989 0.86651
0.14885 -0.48456 0.036766 -0.62252 0.070172 0.77945
0.12873 -0.44316 0.28875 -0.43499 -0.25542 -0.86345
0.14538 -0.17232 -0.032401 -0.60591 0.76527 -0.21734
0.1215 -0.43941 -0.30413 -0.36326 -0.29365 0.8842
0.15567 -0.47379 0.041453 -0.68428 0.094021 0.72313
0.14756 -0.42949 0.27265 -0.58288 -0.28024 -0.7627
0.14498 -0.46455 -0.037079 -0.65103 0.17702 -0.73812
0.16357 -0.45145 -0.05351 -0.78786 0.17274 -0.59114
0.163 -0.45812 0.046148 -0.77659 0.16593 0.60776
0.17751 0.57547 0.02153 -0.92186 -0.27712 -0.27087
0.16708 -0.4338 0.042176 -0.81325 0.17671 0.55443
0.12779 -0.16783 -0.0016982 -0.47161 0.77964 0.412
0.16546 -0.38875 0.030091 -0.80145 0.078298 0.59291
0.16872 -0.36937 0.033022 -0.83012 0.014533 0.5574
0.14231 -0.17238 0.02905 -0.56928 0.76193 0.30883
0.17018 -0.35411 0.035844 -0.84669 -0.0065625 0.53205
0.16667 -0.15082 0.053241 -0.83065 0.48366 0.27586
0.17257 -0.33876 0.039253 -0.86909 0.015341 0.49442
0.16779 -0.31734 0.21415 -0.83121 -0.067297 -0.55187
0.18027 -0.14012 0.13597 -0.96306 0.22225 -0.15204
0.11176 -1.0308 0.074976 -0.22202 0.74057 0.63425
0.17805 -0.22718 0.16867 -0.93819 -0.16276 -0.30546
0.1598 0.12583 0.19617 -0.7413 -0.25016 -0.62281
0.15092 -0.86354 0.066641 -0.6537 -0.086065 0.75185
0.1728 -0.24181 0.18913 -0.8991 -0.1461 -0.41263
0.1408 0.036361 0.2245 -0.55235 -0.1483 -0.82032
0.077883 -1.0579 0.15211 0.029052 0.99904 0.032686
0.17728 -0.26163 0.1868 -0.90423 -0.13777 -0.40422
0.17011 -0.3271 0.21202 -0.84744 -0.10449 -0.5205
0.082592 -1.0575 0.17536 -0.018039 0.99954 -0.024404
0.1547 -0.35116 0.23705 -0.69788 -0.20168 -0.68723
0.14896 -0.37207 0.24981 -0.63454 -0.27563 -0.72207
0.085401 -1.0569 0.19098 -0.046127 0.99773 -0.049063
0.16278 -0.80467 0.2496 -0.77372 0.010631 -0.63343
0.088497 -1.0509 0.22985 -0.077088 0.9482 -0.30819
0.15636 -0.85324 0.26419 -0.71283 -0.097065 -0.69458
0.12464 -0.41547 0.28242 -0.44128 -0.26587 -0.85708
0.11962 -0.90198 0.29401 -0.39585 -0.24788 -0.88422
0.17455 0.5354 0.26382 -0.88404 -0.26553 -0.38466
0.17849 -0.14277 0.079854 -0.9231 0.35418 0.14981
0.1733 -0.12627 0.176 -0.89713 0.24999 -0.36423
0.13684 -0.1492 -0.022663 -0.50345 0.70266 0.50279
0.14073 -0.13056 -0.04121 -0.52146 0.60484 0.60187
0.15929 -0.076328 0.21756 -0.73985 0.11266 -0.66328
0.14872 -0.1265 -0.03364 -0.62168 0.6492 0.43824
0.16141 -0.062696 -0.20372 -0.75625 0.10507 0.64579
0.15859 -0.0449 -0.20875 -0.7212 0.058669 0.69023
0.15619 -0.022901 -0.21241 -0.69134 0.014085 0.72239
0.14047 -0.0019674 0.23339 -0.55472 -0.10667 -0.82517
0.15371 -0.0010421 -0.21427 -0.66839 -0.029099 0.74324
0.13246 0.020318 0.23408 -0.50623 -0.19885 -0.83916
0.15203 0.013017 -0.21499 -0.65539 -0.038141 0.75432
0.15105 0.019658 -0.21535 -0.64892 0.027008 0.76038
0.15028 0.029279 -0.21707 -0.63357 0.062353 0.77117
0.13825 0.049016 0.22482 -0.56095 -0.091172 -0.82281
0.15527 0.048199 -0.21392 -0.67293 0.0047049 0.73969
0.13932 0.064651 0.22208 -0.57755 -0.072115 -0.81316
0.15517 0.074443 -0.21167 -0.68787 -0.082329 0.72115
0.16783 0.078517 -0.35213 -0.80842 0.49236 -0.32256
0.157 0.1711 0.16964 -0.72293 -0.49343 -0.48363
0.1178 0.07977 -0.28739 -0.37922 0.6943 -0.61167
0.1156 0.089265 -0.27504 -0.35088 0.68207 -0.64162
0.15452 0.096809 0.15088 -0.69554 0.62553 -0.35346
0.16991 0.17367 -0.46686 -0.83564 -0.10992 0.53817
0.1193 0.10295 -0.26389 -0.39136 0.63292 -0.66802
0.11878 0.11495 -0.25252 -0.38761 0.60386 -0.6965
0.17153 0.13344 -0.15634 -0.86802 0.4007 0.29322
0.16662 0.18057 0.18213 -0.81205 -0.0098291 -0.58351
0.12164 0.13028 -0.24172 -0.40108 0.5585 -0.72609
0.12023 0.15605 -0.22307 -0.39069 0.50363 -0.77053
0.1574 0.13795 -0.18275 -0.7105 0.63331 0.30677
0.16075 0.24412 0.1843 -0.76881 -0.34366 -0.53928
0.15989 0.2615 0.16836 -0.74543 -0.41616 -0.52071
0.14316 0.19499 -0.21391 -0.56942 0.38303 -0.72736
0.14444 0.22487 -0.20214 -0.58987 0.26304 -0.76345
0.16819 0.24126 0.17014 -0.83446 0.047365 -0.54903
0.14771 0.22704 0.18652 -0.63079 0.3155 -0.70892
0.15165 0.24859 -0.20154 -0.67112 0.27403 -0.68884
0.16513 0.27167 -0.1781 -0.76283 0.0064156 0.64657
0.15835 0.26047 0.20001 -0.72815 0.15889 -0.66675
0.16079 0.30587 0.18822 -0.75595 -0.15973 -0.63484
0.16367 0.27296 -0.20604 -0.78101 0.30872 -0.54288
0.16614 0.26182 -0.16807 -0.80698 0.3646 0.46459
0.16655 0.28332 0.18105 -0.79839 0.20481 -0.56623
0.16437 0.29352 0.19011 -0.79879 0.17702 -0.57498
0.16849 0.33073 -0.37608 -0.82771 -0.18951 0.52818
0.12949 0.26666 -0.17199 -0.52144 0.4749 -0.70892
-0.054471 0.28107 -0.17807 0.60907 0.44082 -0.65933
0.15908 0.29112 -0.18465 -0.73768 0.33152 -0.58815
0.14718 0.34641 -0.21987 -0.62004 -0.12708 0.77421
-0.074934 0.29509 -0.18996 0.72788 0.41926 -0.54259
0.1627 0.30595 -0.18222 -0.75353 0.32006 -0.57424
-0.09718 0.32038 -0.2079 0.86223 0.34336 -0.37238
0.12495 0.29275 -0.15791 -0.4308 0.67437 -0.5997
0.16636 0.34024 0.20532 -0.80779 0.24336 -0.53688
0.1938 0.33313 -0.24417 -0.91363 0.4037 0.04806
0.16475 0.35809 0.21503 -0.79843 0.22979 -0.55651
-0.1172 0.35508 -0.23651 0.95023 0.28582 -0.12394
0.13425 0.31759 -0.14003 -0.54114 0.68613 -0.48621
0.16355 0.40221 -0.34455 -0.76621 -0.071189 0.63863
0.15337 0.3387 -0.13918 -0.6884 0.57019 -0.44832
-0.1215 0.37241 -0.2644 0.95222 0.27066 0.14149
0.16363 0.39298 0.23988 -0.77873 0.33348 -0.53138
0.15742 0.41499 0.25805 -0.72446 0.27811 -0.63072
0.2056 0.45867 -0.269 -0.93264 -0.1991 0.30089
0.17377 0.42708 0.2343 -0.88902 0.32991 -0.31749
-0.1164 0.46959 -0.31681 0.68774 0.13205 0.71385
0.18436 0.50642 -0.29183 -0.8244 -0.23627 0.51433
-0.11874 0.49681 -0.31595 0.71215 -0.0085772 0.70198
0.16724 0.52898 -0.30398 -0.72807 -0.33727 0.5968
-0.11951 0.52048 -0.31345 0.72305 -0.11377 0.68136
0.14889 0.55666 -0.30731 -0.6421 -0.42122 0.64054
0.1764 0.55846 0.23465 -0.89434 -0.36237 -0.26238
0.13304 0.57205 -0.31129 -0.56967 -0.46275 0.67922
0.16873 0.58242 0.21985 -0.83269 -0.46371 -0.30267
-0.097221 0.56719 -0.31991 0.58954 -0.28036 0.75753
0.10446 0.59638 -0.31524 -0.45976 -0.52398 0.71699
0.17786 0.58904 0.0060334 -0.91244 -0.31952 -0.25564
0.17024 0.63125 -0.13833 -0.85181 -0.52128 0.051796
0.0929 -0.9576 -0.044368 -0.033419 0.15236 -0.98776
-0.22653 -1.0196 -0.27458 0.57982 0.73518 0.35116
0.14204 -0.91463 -0.30625 -0.44581 -0.21131 0.86983
0.18012 -0.046076 -0.5367 -0.85932 0.36997 0.35313
0.18733 -0.049023 -0.47304 -0.93428 0.33685 -0.11684
0.11836 -0.88928 -0.054796 -0.28807 -0.070439 -0.95502
0.15993 -0.88689 0.076769 -0.64848 -0.20402 0.73338
0.1075 -0.89102 -0.32543 -0.40536 0.090294 0.90969
0.17696 -0.81338 0.2237 -0.82949 -0.35644 -0.42999
0.14389 -0.8174 -0.072073 -0.54183 0.065831 -0.83791
0.13983 -0.80035 -0.06832 -0.50752 0.070768 -0.85873
0.18709 -0.80251 0.20831 -0.9383 0.093044 -0.33307
0.18339 -0.77819 0.10504 -0.89136 0.066694 0.44837
0.16873 0.30628 -0.4002 -0.74709 -0.42589 0.51038
0.13947 -0.76471 -0.067784 -0.50369 0.065124 -0.86143
0.1735 0.31646 -0.3821 -0.79492 -0.4406 0.4171
0.16004 -0.72946 -0.081628 -0.66571 -0.023272 -0.74585
0.17622 -0.74165 0.24068 -0.81964 0.18752 -0.54132
0.1606 -0.72085 -0.28452 -0.64983 0.15281 0.74456
0.14189 -0.71649 0.28023 -0.5247 0.19255 -0.82922
0.14921 0.35457 -0.34195 -0.58957 0.50979 0.62652
0.15983 -0.70556 -0.28736 -0.62255 0.13146 0.77146
0.14544 -0.71464 -0.067756 -0.54926 0.22226 -0.80555
0.15092 -0.71052 -0.069833 -0.56111 0.31386 -0.76593
0.17098 -0.70882 0.079099 -0.75093 0.25176 0.61051
0.14264 -0.69378 -0.057421 -0.49212 0.31062 -0.81323
0.16 -0.70236 0.064029 -0.65313 0.31935 0.68661
0.13271 -0.68423 0.29257 -0.43355 0.19948 -0.87877
0.14126 -0.68093 -0.30426 -0.46485 0.19228 0.86426
0.13311 -0.67573 -0.046083 -0.39167 0.27168 -0.87908
0.13717 -0.50836 -0.31493 -0.43028 -0.17073 0.8864
0.13254 -0.65753 -0.040509 -0.39346 0.21519 -0.8938
0.095442 -1.0506 -0.23277 -0.058844 0.97845 0.1979
0.1571 -0.88514 -0.29366 -0.63397 0.099268 0.76696
0.12946 -0.64868 0.30233 -0.38834 0.17652 -0.90445
0.16894 -0.80855 -0.26802 -0.73792 -0.36976 0.56458
0.17306 -0.78511 -0.26647 -0.77388 0.052869 0.63112
0.15143 -0.43118 -0.2842 -0.57221 -0.32222 0.75416
0.13701 0.30299 -0.15142 -0.46754 0.68575 -0.55781
0.1724 0.6061 -0.23053 -0.7681 -0.60156 0.21943
0.12414 -0.63432 0.30706 -0.34301 0.16501 -0.92473
0.17092 -0.80536 -0.25349 -0.76887 -0.28 0.57483
0.14993 -0.62201 -0.31122 -0.5136 0.12908 0.84827
0.15225 -0.60373 0.034548 -0.5818 0.035552 0.81256
0.13519 -0.60102 0.30732 -0.41242 0.094621 -0.90607
0.18041 0.36347 -0.16592 -0.86388 0.49174 -0.10909
0.094228 -1.0542 -0.17172 -0.046702 0.99647 0.069793
0.034888 -0.59359 -0.33179 0.23949 0.06342 0.96883
0.15174 -0.58223 0.033409 -0.57194 -0.0055706 0.82028
0.13579 -0.5741 0.30844 -0.41849 0.00083024 -0.90822
0.096197 -1.0457 -0.11014 -0.065787 0.90498 -0.42035
0.13015 -0.82578 -0.064712 -0.40489 -0.20448 -0.89121
0.17551 0.35972 -0.2009 -0.80903 0.39987 0.43078
0.034575 -0.57369 -0.33207 0.24014 -0.0041844 0.97073
0.12059 -0.57219 -0.32842 -0.3089 -0.018149 0.95092
0.13714 -0.55012 0.30685 -0.43195 -0.063595 -0.89965
0.16049 0.13546 -0.16417 -0.68733 0.67922 0.25736
0.16848 0.28477 -0.16813 -0.72802 -0.63711 0.25315
0.144 -0.54868 -0.31688 -0.45744 -0.07676 0.88592
0.19146 -0.33998 -0.10839 -0.9837 -0.065162 -0.16758
0.16863 0.14756 -0.16433 -0.75232 0.54926 0.36376
0.17898 0.28044 -0.16587 -0.83507 0.36011 0.4159
0.15575 0.30016 -0.14204 -0.60036 -0.78195 0.16767
0.14383 -0.52725 -0.31469 -0.45269 -0.1169 0.88397
0.18017 0.14153 -0.1476 -0.84401 -0.40235 0.35462
0.17915 0.13374 -0.1241 -0.84785 0.50393 0.16495
0.17176 0.2672 -0.1653 -0.77466 0.36426 0.51693
0.16719 -0.15205 -0.12217 -0.72862 0.64361 0.23426
0.1779 0.10137 -0.11586 -0.83781 0.47993 0.26025
0.18223 0.19353 -0.13339 -0.88284 -0.2646 0.38805
0.14225 -0.48469 0.2933 -0.48312 -0.23555 -0.84328
0.18925 0.17907 -0.11521 -0.94003 -0.036408 0.33913
0.15308 -0.47652 -0.29815 -0.55676 -0.22947 0.79835
0.16183 -0.49385 0.048081 -0.66086 -0.056227 0.7484
0.16427 -0.48499 0.050723 -0.68884 -0.013241 0.72479
0.13351 -0.45743 0.29025 -0.44848 -0.24504 -0.85955
0.16101 -0.44888 -0.2831 -0.63074 -0.26422 0.72962
0.17006 -0.4699 0.056587 -0.74723 0.011211 0.66447
0.14772 -0.15746 -0.00013387 -0.60973 0.69678 -0.3778
0.17628 0.09274 -0.061735 -0.83845 0.50782 0.19779
0.19289 0.12368 -0.044695 -0.98016 0.12372 0.15483
0.18712 0.55827 0.012184 -0.91968 -0.27489 -0.2804
0.18289 0.54501 0.031891 -0.89225 -0.22215 -0.39311
0.16604 -0.39243 0.24129 -0.72637 -0.23582 -0.64559
0.19065 0.52662 0.010789 -0.965 -0.25834 -0.045091
0.14878 -0.16236 0.014505 -0.55468 0.75601 0.34753
0.19201 0.12178 0.058147 -0.97689 0.15873 -0.14315
0.18909 0.16294 0.062277 -0.94932 -0.30457 -0.077611
0.18152 0.10491 0.077623 -0.89031 0.39238 -0.23107
0.15639 -0.17026 0.06406 -0.65726 0.74342 0.12382
0.167 0.25647 0.060094 -0.67928 -0.72996 0.075782
0.16824 0.089005 0.096028 -0.76477 0.62611 -0.15201
0.17123 -0.15611 0.097918 -0.79125 0.61022 -0.039364
0.18869 0.23131 0.12921 -0.94856 -0.062461 -0.31038
0.17496 -0.14946 0.11439 -0.82958 0.55366 -0.072502
0.18867 0.56266 0.12024 -0.94445 -0.31652 -0.088431
0.14029 0.21352 0.19162 -0.48523 0.5197 -0.70319
0.17008 0.29917 0.18137 -0.77739 -0.16375 -0.60734
0.18312 0.32804 0.16157 -0.9103 0.016127 -0.41365
0.15632 0.050977 0.2107 -0.62524 -0.10288 -0.77362
0.13808 -0.89974 0.057299 -0.45518 -0.24918 0.85482
0.18773 -0.33186 0.17433 -0.95022 -0.13583 -0.28043
0.10658 -1.0576 0.14714 -0.12632 0.99124 0.038513
0.17927 -0.7448 0.09897 -0.85362 -0.037745 0.51953
0.10439 -1.0568 0.16889 -0.10448 0.99339 -0.047441
0.19175 -0.78787 0.13861 -0.97775 -0.0098564 0.20954
0.17127 -0.37351 0.22687 -0.77096 -0.2615 -0.58072
0.17418 -0.87352 0.24529 -0.80277 -0.064252 -0.59281
0.16349 -0.41597 0.25394 -0.68951 -0.26926 -0.67237
0.15263 -0.88932 0.27069 -0.59207 -0.26204 -0.76209
0.14017 -0.90498 0.28625 -0.45971 -0.27871 -0.8432
0.14013 -0.50367 0.29922 -0.46047 -0.18765 -0.86761
0.15098 -0.14861 -0.0073717 -0.56724 0.69875 0.43588
0.16745 -0.087496 0.20537 -0.73939 0.21776 -0.63708
0.16747 -0.11082 -0.033211 -0.65781 0.5116 0.55277
0.16182 -0.11346 -0.033588 -0.67271 0.59724 0.43677
0.17204 -0.059778 -0.19154 -0.77829 0.12406 0.61552
0.17047 -0.036708 -0.19687 -0.75149 0.064454 0.65659
0.16883 -0.0132 -0.19979 -0.73077 0.0047789 0.68261
0.16749 0.0075254 -0.20063 -0.71966 -0.027074 0.69379
0.14448 0.029807 0.2239 -0.55767 -0.20604 -0.80408
0.16607 0.019686 -0.20132 -0.70893 0.026726 0.70477
0.1653 0.029299 -0.20334 -0.69453 0.062152 0.71678
0.15629 0.06805 0.20883 -0.63585 -0.1061 -0.76448
0.17035 0.066662 -0.19716 -0.74799 -0.09222 0.65727
0.15649 0.077157 0.20734 -0.65919 -0.065621 -0.74911
0.17438 0.1738 0.13133 -0.81046 -0.51276 -0.28327
0.17805 0.099553 -0.34588 -0.84126 0.49986 -0.20597
0.16989 0.11733 -0.29993 -0.75174 0.48091 -0.45123
0.17257 0.13689 -0.28474 -0.76793 0.43745 -0.46788
0.17553 0.18669 0.17116 -0.82503 -0.074895 -0.5601
0.16524 0.14472 -0.26761 -0.70802 0.45134 -0.54314
0.16782 0.18123 -0.2459 -0.73384 0.34599 -0.5846
0.1746 0.20731 -0.24084 -0.79927 0.25591 -0.54376
0.17326 0.23652 -0.22817 -0.79155 0.16584 -0.58817
0.15459 0.20328 0.16512 -0.62561 0.46378 -0.62731
0.17416 0.29735 0.17353 -0.80951 0.051635 -0.58483
0.11539 0.28838 -0.15001 -0.43353 0.40887 -0.80305
0.18586 0.31649 -0.21975 -0.92058 0.20602 -0.33179
0.18855 0.32873 -0.22008 -0.93136 0.27506 -0.23858
0.17752 0.34055 -0.18862 -0.81665 0.063054 0.57368
-0.067736 0.31874 -0.16746 0.644 0.37327 -0.66778
0.16276 0.30661 -0.18434 -0.73489 0.49496 -0.46362
0.17306 0.33986 -0.19493 -0.7881 0.25539 0.56007
-0.094201 0.33418 -0.1921 0.80788 0.34794 -0.47568
0.15212 0.34962 -0.12451 -0.58726 0.45802 -0.66734
0.18024 0.38068 0.19902 -0.86915 0.19609 -0.45401
-0.1128 0.34773 -0.2314 0.88002 0.47365 -0.035024
0.16092 0.35032 -0.13526 -0.68655 0.53547 -0.49186
0.21478 0.37292 -0.2423 -0.96123 0.26563 0.07398
0.15338 0.42713 -0.36689 -0.60079 -0.1053 0.79244
0.18521 0.39934 0.19981 -0.90728 0.27509 -0.31806
-0.12688 0.3976 -0.26729 0.91856 0.27985 0.27916
0.21621 0.42974 -0.23368 -0.99181 -0.12716 -0.012268
0.18213 0.40516 0.2136 -0.88416 0.28473 -0.37039
0.21548 0.43447 -0.23892 -0.99435 -0.064899 0.083988
0.1812 0.42879 0.23007 -0.86883 0.23925 -0.43346
0.20529 0.47102 -0.26526 -0.92337 -0.16202 0.34806
-0.12554 0.44495 -0.29675 0.78112 0.24141 0.57583
0.20269 0.48503 -0.26667 -0.91847 -0.15081 0.36562
0.18007 0.52801 -0.28717 -0.78984 -0.32071 0.52278
0.16454 0.55385 -0.29128 -0.72475 -0.39864 0.56198
0.18812 0.55821 0.1571 -0.9428 -0.31904 -0.09664
0.15075 0.56957 -0.29571 -0.65888 -0.43765 0.61183
-0.12164 0.55967 -0.29981 0.7366 -0.24253 0.63135
0.18654 0.57351 -0.0068179 -0.92726 -0.30738 -0.21377
-0.0797 0.62329 -0.30434 0.49891 -0.52433 0.69004
0.14722 -0.9882 -0.29983 -0.40834 0.39722 0.82187
0.15688 -0.95665 0.28417 -0.59387 0.098933 -0.79846
0.17184 -0.90354 0.2626 -0.68116 -0.30047 -0.66764
0.16671 -0.90032 -0.28604 -0.61931 -0.2012 0.75893
0.12704 -0.89949 -0.056188 -0.2871 -0.16573 -0.94346
-0.25383 -0.86452 -0.26497 0.75515 -0.55266 0.35257
-0.20271 -0.82201 -0.25767 0.35058 -0.89931 0.26142
0.17014 -0.9014 -0.28375 -0.66564 -0.058901 0.74394
0.17316 -0.88391 -0.28026 -0.7004 -0.058369 0.71136
0.14728 -0.87211 -0.068321 -0.49653 -0.088716 -0.86348
-0.068316 -0.807 -0.29363 0.34773 -0.66606 0.65988
