-0.0039741 0.3503 -0.14606 0.081871 -0.8412 0.53449
-0.0014704 0.40572 -0.016152 0.10422 -0.98949 0.10022
-0.014537 -0.24838 -0.001061 0.096906 0.99504 0.02264
0.018641 -0.11999 -0.26193 -0.12588 0.39827 0.90859
0.050156 -0.091316 -0.27228 -0.37886 0.55882 0.73769
-0.0027894 -0.086706 0.30686 -0.039186 0.55063 -0.83383
0.024834 -0.0041883 0.33135 -0.2631 0.090093 -0.96055
0.056066 -0.030222 -0.3064 -0.42845 0.35898 0.8292
0.02437 0.036311 0.33345 -0.29656 -0.030807 -0.95452
0.045499 0.013052 -0.32432 -0.36474 0.1295 0.92206
0.035369 0.10701 -0.31976 -0.27836 -0.23983 0.93005
0.0298 0.12811 -0.31536 -0.2605 -0.28423 0.92269
0.037371 0.14618 -0.30749 -0.26047 -0.32634 0.90866
0.023433 0.25281 -0.25375 -0.12449 -0.53584 0.83509
0.035868 0.19057 -0.28733 -0.20791 -0.44591 0.87059
0.0047766 -0.24331 -0.18495 -0.014776 0.94754 0.31929
-0.0074413 -0.25051 -0.13641 0.052523 0.99783 0.039754
0.0091497 0.32733 -0.18199 0.077083 -0.81336 0.57663
-0.0090901 -0.25032 -0.059282 0.13432 0.99092 -0.0051943
0.0033516 0.37751 -0.1011 0.11838 -0.87713 0.46544
-0.007553 -0.25021 -0.034446 0.09748 0.99465 -0.034282
0.0016676 0.38736 -0.080708 0.10809 -0.9099 0.40049
-0.0090194 -0.25049 0.031779 0.087974 0.9944 0.058631
0.0027608 0.38921 0.078476 0.11231 -0.90763 -0.40447
-0.0076182 -0.25285 0.061522 0.089812 0.99459 0.052269
0.0021323 0.37912 0.098853 0.1188 -0.88197 -0.4561
0.0025711 0.36759 0.12045 0.095489 -0.8615 -0.49869
-0.0078783 -0.25338 0.083902 0.089183 0.99601 0.0028003
-0.0010237 0.34441 0.15688 0.059377 -0.83255 -0.55076
0.013277 0.31454 0.19704 0.0067641 -0.72279 -0.69103
0.0011904 -0.18984 0.24909 -0.0064538 0.52473 -0.85124
0.0033796 -0.14682 0.25821 0.0024236 0.67156 -0.74095
-0.00034382 -0.13601 0.26796 0.00091821 0.65871 -0.7524
0.035247 0.094599 0.31917 -0.36802 -0.25381 -0.89451
0.035861 0.065437 0.32623 -0.36475 -0.16775 -0.91587
0.0151 -0.22698 -0.21856 -0.030836 0.82306 0.56712
-0.0033544 -0.12015 0.26482 -0.025596 0.027022 -0.99931
0.0027355 -0.13239 0.26209 -0.016955 0.26155 -0.96504
0.0029187 -0.15167 0.25296 -0.018787 0.58863 -0.80819
0.0057667 -0.12065 0.28082 -0.0085269 0.6283 -0.77793
0.052217 -0.067637 -0.28781 -0.39542 0.49209 0.77556
0.029766 -0.023889 0.32776 -0.24797 0.16091 -0.95531
0.036399 0.12376 0.31019 -0.33004 -0.29078 -0.89806
0.023898 0.22421 0.26854 -0.18984 -0.51493 -0.83595
0.02596 0.22239 -0.27207 -0.15261 -0.49886 0.85314
0.024766 0.23964 -0.26182 -0.1362 -0.52132 0.84242
0.004784 0.27257 0.23546 -0.09233 -0.64865 -0.75546
0.0057477 0.29048 0.21961 -0.053537 -0.67233 -0.73831
0.03215 -0.10883 -0.26525 -0.2003 0.45063 0.86995
0.01425 0.31356 -0.20155 0.035766 -0.77341 0.63289
0.015007 0.35584 -0.14039 0.10095 -0.84054 0.53226
-0.0069351 -0.25005 -0.081963 0.11397 0.99345 0.0085504
0.0092886 0.367 -0.12118 0.11424 -0.85588 0.50439
-0.0011464 -0.2499 -0.017922 0.086664 0.99493 -0.050993
0.013888 0.40015 -0.050419 0.11394 -0.95122 0.28672
0.0063307 0.40701 0.019648 0.12789 -0.98473 -0.11812
-0.0031966 -0.25007 0.010257 0.065926 0.99659 0.049641
0.0043908 0.3975 0.057582 0.10853 -0.94276 -0.31531
-0.0034233 -0.25353 0.1029 0.083373 0.996 -0.032221
0.0075196 -0.10483 0.29321 -0.033846 0.60323 -0.79685
0.034853 -0.17378 -0.25884 -0.097566 0.37114 0.92344
0.015774 -0.1125 -0.26614 -0.0018301 -0.041256 0.99915
0.016362 -0.10637 -0.26498 -0.011178 0.10236 0.99468
0.019473 -0.061852 0.31914 -0.13678 0.38709 -0.91184
0.052669 0.038396 -0.32313 -0.3636 -4.5092e-007 0.93155
0.053348 0.065347 -0.32082 -0.34812 -0.095417 0.93258
0.047781 0.12125 -0.31186 -0.3079 -0.26106 0.9149
0.04546 0.14572 0.29922 -0.3209 -0.31801 -0.89213
0.0322 0.17257 -0.2974 -0.21947 -0.42513 0.87812
0.018618 0.25265 0.24964 -0.13552 -0.59659 -0.79102
0.015172 0.29763 -0.21964 0.00072266 -0.71674 0.69734
0.01037 0.345 -0.15639 0.086123 -0.83084 0.54981
0.018919 -0.24537 -0.17684 -0.036754 0.95861 0.28234
0.0015348 -0.25228 0.045692 0.085442 0.99327 0.078209
0.019396 0.36077 0.13449 0.074901 -0.83352 -0.54739
0.003152 -0.25253 0.129 0.06443 0.99444 -0.083322
0.0050123 0.33359 0.17332 0.050957 -0.80196 -0.5952
0.029281 0.33168 0.17758 0.033151 -0.7713 -0.63561
0.0061275 -0.24816 0.16142 0.039515 0.96719 -0.25097
0.010265 -0.23558 0.19567 0.0045971 0.89571 -0.44462
0.012337 -0.15289 0.25264 0.022623 0.6645 -0.74695
0.015428 -0.14213 0.26239 -0.0018449 0.66577 -0.74615
0.0090073 -0.13301 0.26635 0.023627 0.074024 -0.99698
0.012876 -0.14303 0.25726 0.02368 0.46515 -0.88492
0.032659 -0.11089 -0.26382 -0.070838 0.25303 0.96486
0.016312 -0.12864 0.27421 -0.010684 0.64128 -0.76723
0.047077 -0.099357 -0.26648 -0.23798 0.46314 0.85374
0.02332 -0.090913 0.30199 -0.10013 0.54322 -0.8336
0.047615 -0.0044582 0.3242 -0.33626 0.066962 -0.93939
0.044891 0.014842 0.32609 -0.34728 0.016585 -0.93762
0.051597 0.04063 0.32269 -0.39855 -0.073619 -0.91418
0.057333 0.092675 -0.31588 -0.33728 -0.1735 0.92528
0.044463 0.10681 0.31187 -0.36503 -0.25109 -0.8965
0.050806 0.15819 -0.299 -0.2708 -0.36678 0.89002
0.039486 0.20813 -0.27742 -0.18977 -0.46605 0.86417
0.039232 0.20507 0.27506 -0.23209 -0.4431 -0.86591
0.043505 0.22349 -0.26804 -0.18524 -0.48596 0.85412
0.072297 0.0036946 -0.31034 -0.44744 0.21162 0.86891
0.039598 0.26675 -0.24243 -0.12618 -0.55183 0.82436
0.0066129 -0.25129 -0.12318 0.057261 0.99824 0.015617
0.0065108 -0.2514 -0.10322 0.090562 0.99581 0.012908
0.028026 0.3323 -0.17766 0.07604 -0.81191 0.57881
0.010617 -0.25137 -0.029764 0.072097 0.9955 -0.061471
0.011895 -0.25072 -0.012265 0.060987 0.99779 -0.026491
0.015398 0.39877 0.058381 0.15712 -0.9389 -0.30623
0.01161 -0.25178 0.02538 0.039567 0.99642 0.07472
0.015029 0.38597 0.089478 0.14455 -0.8957 -0.42052
0.019778 0.37213 0.11643 0.1119 -0.85621 -0.50437
0.028814 0.30714 0.20367 -0.025945 -0.67816 -0.73446
0.032519 -0.12085 -0.26669 -0.017792 -0.0099691 0.99979
0.026497 -0.10503 -0.26539 -0.0092176 0.00089967 0.99996
0.044588 -0.1035 -0.26506 -0.13829 0.35404 0.92495
0.058043 -0.092708 -0.26692 -0.32096 0.53711 0.78006
0.067486 -0.077024 -0.27354 -0.37849 0.51561 0.76869
0.049693 -0.029752 0.32093 -0.31247 0.16111 -0.93617
0.074422 -0.036576 -0.29394 -0.4303 0.37137 0.82275
0.077847 -0.019037 -0.29903 -0.46954 0.32076 0.82259
0.0619 0.058135 0.3156 -0.42374 -0.14508 -0.89409
0.055533 0.085958 0.31253 -0.40285 -0.21727 -0.88911
0.056567 0.1197 0.30298 -0.37842 -0.264 -0.88719
0.051069 0.16714 0.28913 -0.28786 -0.35742 -0.88848
0.042781 0.23947 -0.25878 -0.16551 -0.50605 0.84647
0.02175 0.29383 0.21568 -0.035999 -0.65322 -0.75631
0.03722 0.29118 -0.22455 -0.068033 -0.64472 0.76139
0.019006 0.40759 -0.018798 0.11141 -0.9874 0.11236
0.056374 0.20032 -0.27724 -0.23165 -0.4407 0.86725
0.026237 0.3169 -0.19819 0.038602 -0.76582 0.6419
0.0025655 -0.25164 -0.0819 0.18017 0.9822 0.053118
0.005491 -0.25277 -0.051069 0.15211 0.98619 -0.065494
0.018382 0.37555 -0.10877 0.12358 -0.86662 0.48341
0.018432 0.38769 -0.085113 0.12308 -0.90394 0.40956
0.02125 0.40815 0.024146 0.17151 -0.97759 -0.12209
0.019102 -0.25317 0.039791 0.064095 0.98894 0.13377
0.0076948 -0.25491 0.085688 0.11734 0.99302 -0.011565
0.021244 0.34724 0.15473 0.064322 -0.82894 -0.55562
0.012996 -0.25428 0.11608 0.08612 0.99392 -0.068555
0.029486 -0.23415 0.19762 -0.039111 0.88398 -0.4659
0.024813 -0.19888 0.24178 -0.044031 0.60823 -0.79254
0.028809 -0.13421 0.26928 -0.032341 0.64151 -0.76643
0.062154 0.13173 0.29702 -0.36091 -0.26447 -0.89432
0.015164 -0.25382 -0.089414 0.20884 0.97358 0.092401
0.025493 -0.11556 0.28428 -0.050832 0.60248 -0.79651
0.073652 -0.058123 -0.28304 -0.41106 0.4735 0.77899
0.068243 0.028914 0.31573 -0.42393 -0.061192 -0.90363
0.079214 0.040017 -0.31144 -0.43242 0.022519 0.90139
0.037882 0.2625 0.23889 -0.12953 -0.58789 -0.79851
0.03605 -0.23491 -0.20103 -0.078298 0.87581 0.47626
0.022974 -0.2512 -0.14811 0.019549 0.99204 0.12441
0.031201 0.34841 -0.15484 0.096559 -0.82491 0.55695
0.015604 -0.25219 -0.10219 0.15136 0.9851 0.08169
0.024182 0.36561 -0.12687 0.11832 -0.84476 0.52191
0.022302 -0.25197 -0.030641 0.065009 0.98936 -0.13018
0.027427 -0.25149 -0.023894 0.033135 0.9979 -0.055608
0.028317 -0.25137 -0.012583 0.024226 0.99961 -0.013762
0.023693 -0.25119 0.004188 0.029315 0.99957 0.0025499
0.02643 -0.25116 0.017566 -0.0020985 0.99892 0.046329
0.031881 -0.2519 0.027998 -0.011411 0.99388 0.10988
0.0099051 -0.25455 0.062494 0.12945 0.98917 0.069218
0.029213 0.35607 0.14226 0.080694 -0.8273 -0.55594
0.042779 0.31372 0.19728 -0.017075 -0.69181 -0.72188
0.074646 0.046576 0.31113 -0.4346 -0.10689 -0.89426
0.020772 -0.1202 0.26458 0.012521 0.058912 -0.99818
0.025722 -0.14766 0.25604 0.038882 0.49393 -0.86863
0.041146 -0.10142 -0.26542 -0.00075461 -0.035208 0.99938
0.058454 -0.089849 -0.26836 -0.15008 0.33548 0.93001
0.03631 -0.097296 0.2961 -0.12289 0.52826 -0.84014
0.053002 -0.059058 0.31262 -0.27503 0.32215 -0.90586
0.072823 0.065846 -0.31289 -0.3863 -0.080801 0.91883
0.07649 0.086909 -0.30919 -0.38073 -0.14019 0.914
0.070587 0.11302 -0.30587 -0.34893 -0.23502 0.9072
0.065964 0.1323 -0.30216 -0.33262 -0.27016 0.90354
0.063378 0.1806 -0.28508 -0.27968 -0.39544 0.87488
0.055939 0.24394 -0.25355 -0.17394 -0.49588 0.8508
0.040462 -0.10283 -0.26478 -0.027025 0.10774 0.99381
0.042206 0.31723 -0.1988 0.027387 -0.75536 0.65474
0.033215 0.35959 -0.13826 0.10931 -0.83414 0.54062
0.016773 -0.25567 -0.066303 0.17841 0.98388 -0.012461
0.032334 0.39698 -0.066875 0.14223 -0.92659 0.34814
0.028329 0.40736 -0.028613 0.17472 -0.96905 0.17443
0.028726 0.3976 0.069394 0.16281 -0.91746 -0.36299
0.029719 0.38364 0.098784 0.13157 -0.87225 -0.47104
0.044789 0.34723 0.15868 0.075604 -0.8119 -0.57887
0.068955 0.10506 0.30167 -0.37605 -0.22776 -0.89817
0.038089 -0.14033 0.26551 -0.073494 0.13431 -0.98821
0.055013 -0.17401 -0.25555 -0.08823 0.40769 0.90885
0.049888 -0.10463 -0.26475 -0.046197 0.25634 0.96548
0.084744 -0.063759 -0.27276 -0.38856 0.46562 0.79512
0.071376 -0.01706 0.31368 -0.39614 0.090406 -0.91373
0.071595 0.0066732 0.31515 -0.41392 0.0073084 -0.91029
0.091349 0.0035713 -0.29925 -0.48781 0.22992 0.84213
0.070859 0.15928 -0.29172 -0.33284 -0.3337 0.88196
0.048946 0.26779 0.2334 -0.11749 -0.58226 -0.80447
0.060248 0.26331 -0.24108 -0.15394 -0.53067 0.83348
0.04968 0.2953 -0.22018 -0.047346 -0.64078 0.76626
0.032711 0.38518 -0.094302 0.11419 -0.89019 0.44105
0.03076 -0.25244 -0.12783 0.051448 0.99721 0.053995
0.046976 0.32821 -0.18537 0.034349 -0.78418 0.61958
0.034598 0.37147 -0.11981 0.11956 -0.85524 0.50424
0.025823 -0.2539 -0.037715 0.1267 0.97612 -0.17645
0.023584 -0.25768 0.082048 0.17534 0.98444 -0.011123
0.038106 0.36347 0.13295 0.081296 -0.82933 -0.55281
0.024175 -0.25569 0.11216 0.12059 0.98756 -0.10093
0.028435 -0.251 0.15158 0.035957 0.97497 -0.2194
0.042995 -0.23588 0.19332 -0.025701 0.88203 -0.47048
0.030752 -0.14424 0.26044 0.0031052 0.63885 -0.76932
0.068154 0.15006 0.28907 -0.33779 -0.28646 -0.89657
0.056501 -0.11923 -0.26607 -0.052273 0.026714 0.99828
0.065856 -0.084278 -0.26923 -0.27567 0.44382 0.85266
0.09179 -0.039962 -0.28322 -0.44099 0.38416 0.81114
0.074425 0.07365 0.30656 -0.41285 -0.17324 -0.89417
0.082616 0.096861 0.29801 -0.36461 -0.1961 -0.91028
0.062736 0.19194 0.27459 -0.265 -0.39711 -0.87868
0.047711 0.29517 0.21306 -0.066401 -0.62067 -0.78125
0.086852 0.10089 -0.3024 -0.37779 -0.18513 0.9072
0.041455 -0.25171 -0.018585 0.0349 0.99776 -0.057036
0.039265 -0.25125 0.0041744 0.013218 0.99964 -0.023144
0.031957 0.4121 0.0080162 0.22482 -0.97424 -0.017592
0.037911 0.40386 0.05633 0.19375 -0.92878 -0.31596
0.037142 -0.2517 0.028492 0.045741 0.97765 0.20522
0.041586 0.37578 0.11482 0.10296 -0.84379 -0.52671
0.051407 0.32855 0.18212 0.009632 -0.72474 -0.68895
0.051175 -0.19394 0.24255 -0.10005 0.57718 -0.81046
0.049493 -0.13001 0.26414 -0.051502 0.11311 -0.99225
0.055367 -0.10122 -0.26497 -0.0073739 0.10873 0.99404
0.054069 -0.10101 0.29127 -0.14022 0.51354 -0.84653
0.082155 -0.067522 -0.27197 -0.28221 0.38137 0.88029
0.083304 -0.034403 0.30659 -0.39729 0.12475 -0.90918
0.086462 0.027793 0.3067 -0.45093 -0.052209 -0.89103
0.1032 0.0071995 -0.29318 -0.48004 0.21388 0.85077
0.098462 0.034213 -0.30109 -0.47458 0.093485 0.87524
0.09886 0.073354 -0.30064 -0.42459 -0.065491 0.90302
0.083939 0.12436 -0.29743 -0.35422 -0.25212 0.90053
0.07935 0.18688 -0.27696 -0.28466 -0.39631 0.87287
0.08038 0.20022 -0.27059 -0.27183 -0.41304 0.8692
0.054826 0.27631 0.22629 -0.11605 -0.58085 -0.80569
0.074172 0.26892 -0.23505 -0.15976 -0.51633 0.84135
0.085944 0.22726 -0.25549 -0.23802 -0.43982 0.86597
0.080634 0.24771 -0.24593 -0.20116 -0.48003 0.85387
0.044077 -0.25012 -0.15729 0.015535 0.98076 0.19459
0.074988 0.28648 -0.22385 -0.13115 -0.55523 0.82129
0.06661 0.31028 -0.20576 -0.048777 -0.69322 0.71907
0.051822 0.33914 -0.17121 0.063586 -0.80183 0.59416
0.055524 0.35268 -0.1529 0.084396 -0.81798 0.56902
0.048278 0.3645 -0.13378 0.10919 -0.83412 0.54067
0.047772 0.38655 -0.095456 0.12361 -0.88934 0.44022
0.039824 0.40771 -0.037881 0.212 -0.94677 0.24225
0.043307 0.38915 0.092258 0.13235 -0.88011 -0.45595
0.033105 -0.25644 0.046444 0.12997 0.97292 0.19111
0.03465 -0.25707 0.11426 0.17576 0.97457 -0.13898
0.049964 -0.12012 0.27875 -0.079675 0.57967 -0.81095
0.08654 0.11169 0.29316 -0.35796 -0.22135 -0.90712
0.06636 -0.10651 -0.26517 -0.020452 0.022109 0.99955
0.050799 -0.13618 0.26745 -0.031975 0.59912 -0.80002
0.067265 -0.094025 -0.26645 -0.055328 0.21366 0.97534
0.072479 -0.080489 -0.26888 -0.10683 0.25295 0.96156
0.081223 -0.072497 -0.2705 -0.1915 0.33256 0.92343
0.076332 -0.066953 0.30185 -0.30788 0.30753 -0.90035
0.099027 -0.04599 -0.27547 -0.3664 0.38026 0.84921
0.097742 -0.015391 -0.28884 -0.46383 0.28696 0.83816
0.090113 0.049265 0.30322 -0.44062 -0.10224 -0.89185
0.079499 0.12749 0.2915 -0.34719 -0.25894 -0.90134
0.089118 0.14706 -0.28882 -0.34223 -0.2882 0.89433
0.092884 0.16774 -0.28044 -0.30945 -0.34322 0.88681
0.07724 0.17151 0.27867 -0.30601 -0.33938 -0.88948
0.073457 0.21148 0.26227 -0.26237 -0.42206 -0.86777
0.051033 -0.22832 -0.21085 -0.038277 0.81558 0.57737
0.030955 -0.25324 -0.11446 0.22038 0.96042 0.17038
0.050593 0.37679 -0.11465 0.10952 -0.86111 0.49648
0.035505 -0.25739 -0.04843 0.13773 0.98041 -0.1408
0.040404 -0.25187 -0.023165 0.058318 0.97967 -0.19193
0.05478 -0.25187 -0.0051738 0.017872 0.99919 -0.036192
0.050226 -0.25093 0.015727 -0.0011628 0.99992 -0.012756
0.046795 -0.25072 0.020632 0.002483 0.99328 0.11574
0.040698 -0.25403 0.13441 0.11644 0.97572 -0.18548
0.050891 -0.25074 0.15569 0.053528 0.96062 -0.27265
0.064393 -0.197 0.23839 -0.078255 0.58935 -0.80408
0.071039 -0.16675 -0.25711 -0.035175 0.34547 0.93777
0.061434 -0.14532 0.26139 -0.04032 0.24527 -0.96862
0.045449 -0.13245 0.26309 0.024008 0.28367 -0.95862
0.049292 -0.1494 0.25586 0.021093 0.56804 -0.82273
0.065113 -0.14066 0.26311 -0.055812 0.59165 -0.80426
0.099026 -0.029701 0.30008 -0.42158 0.10025 -0.90123
0.095827 -0.0040668 0.30284 -0.4429 0.014628 -0.89645
0.10294 0.015956 0.29903 -0.45844 -0.033869 -0.88808
0.1103 0.04146 -0.29519 -0.43943 0.062983 0.89606
0.091054 0.081586 0.29778 -0.39689 -0.16948 -0.90208
0.099842 0.093104 0.29186 -0.39542 -0.17096 -0.90245
0.084821 0.14755 0.2836 -0.33756 -0.26784 -0.90239
0.082707 0.19078 0.26872 -0.2957 -0.37633 -0.87803
0.061262 0.30305 0.20562 -0.053409 -0.63597 -0.76986
0.058432 -0.24858 -0.16445 0.0071737 0.96345 0.2678
0.045995 -0.25321 -0.13024 0.095663 0.98736 0.12638
0.077584 0.3255 -0.18923 -0.011632 -0.73634 0.67652
0.065864 0.34203 -0.16876 0.049069 -0.7917 0.60893
0.04798 0.39992 -0.066577 0.1613 -0.91458 0.37085
0.045102 0.41407 -0.012752 0.24378 -0.96422 0.10415
0.048732 0.41239 0.03351 0.23656 -0.95369 -0.18577
0.054685 0.39362 0.087255 0.15421 -0.87356 -0.46165
0.057084 0.38356 0.10558 0.11105 -0.84426 -0.52431
0.037931 -0.25958 0.06328 0.19412 0.97527 0.10572
0.035086 -0.25926 0.094682 0.24063 0.96835 -0.066259
0.071715 0.33174 0.17935 0.0099312 -0.71655 -0.69746
0.06961 0.31507 0.19493 -0.027129 -0.65729 -0.75315
0.056159 -0.2348 0.1949 -0.0023776 0.8723 -0.48897
0.072906 -0.098832 -0.26527 -0.0084254 0.10311 0.99463
0.088655 -0.093894 0.28714 -0.2613 0.39152 -0.88229
0.10934 -0.01628 -0.28269 -0.42258 0.29037 0.85855
0.11304 0.010095 -0.28858 -0.41252 0.22457 0.88283
0.10561 0.039623 0.29603 -0.45685 -0.069228 -0.88684
0.10075 0.061592 0.29647 -0.4384 -0.11678 -0.89116
0.099157 0.18821 -0.26948 -0.29489 -0.38169 0.87599
0.07657 0.26598 0.23005 -0.14372 -0.53306 -0.83378
0.066483 0.28091 0.22136 -0.097697 -0.57182 -0.81454
0.052335 0.36005 0.13968 0.089106 -0.83525 -0.54261
0.05718 0.37187 0.12326 0.090519 -0.82535 -0.55732
0.034897 -0.26013 -0.074074 0.24739 0.96845 -0.029884
0.071476 0.36199 -0.14188 0.083349 -0.81942 0.5671
0.061624 0.3706 -0.12702 0.10278 -0.84673 0.52201
0.055836 -0.2537 -0.026112 0.10452 0.94886 -0.29788
0.065129 0.38492 -0.10256 0.1157 -0.87261 0.47451
0.060146 0.39612 -0.079014 0.15416 -0.88974 0.42964
0.058534 -0.25231 -0.019847 0.031982 0.99602 -0.083158
0.053097 0.40448 0.064585 0.18721 -0.90939 -0.37143
0.05478 -0.2543 0.02804 0.10793 0.93943 0.32531
0.067201 0.3642 0.13623 0.094492 -0.83144 -0.54752
0.064652 0.35106 0.1564 0.081227 -0.8095 -0.58147
0.073683 -0.21497 0.2213 -0.067865 0.71892 -0.69177
0.10272 -0.048091 0.29576 -0.38972 0.16456 -0.90611
0.098626 -0.049238 -0.27442 -0.23618 0.30865 0.92139
0.11088 -0.017258 0.29491 -0.4352 0.040003 -0.89945
0.11459 0.070263 -0.29292 -0.41938 -0.021666 0.90755
0.10658 0.13677 -0.28503 -0.3438 -0.25361 0.90415
0.10957 0.15356 -0.27915 -0.33349 -0.28108 0.89988
0.097614 0.24549 -0.24275 -0.22908 -0.45961 0.85807
0.1139 0.17629 -0.26961 -0.31044 -0.34134 0.88719
0.071283 -0.2279 -0.20979 -0.037075 0.82352 0.56607
0.096859 0.29478 -0.21474 -0.14613 -0.562 0.81412
0.081363 0.34389 -0.16741 0.030469 -0.78417 0.6198
0.055608 0.40764 -0.049883 0.21467 -0.92404 0.31634
0.070111 -0.25143 0.0058875 0.0065966 0.99903 -0.043505
0.066879 -0.25082 0.018702 0.0034064 0.99938 0.034974
0.066315 -0.25009 0.018634 0.020349 0.96983 0.24294
0.046313 -0.25686 0.12713 0.21256 0.94982 -0.22949
0.055704 -0.25368 0.14433 0.13804 0.95261 -0.27107
0.11333 0.090735 0.28592 -0.41188 -0.14874 -0.89902
0.11458 0.026057 0.29238 -0.43839 -0.054927 -0.8971
0.080847 -0.1375 -0.26446 -0.023276 0.15772 0.98721
0.07707 -0.10948 -0.26513 0.014488 0.019524 0.9997
0.080864 -0.11924 0.27515 -0.14524 0.49437 -0.85703
0.083828 -0.087795 -0.26714 -0.033721 0.17719 0.9836
0.091574 -0.065634 -0.27093 -0.10675 0.23176 0.9669
0.10901 -0.025935 -0.27897 -0.28738 0.28284 0.9151
0.1165 -0.0066891 -0.28196 -0.35452 0.24877 0.90135
0.11664 0.050912 0.28942 -0.44618 -0.086434 -0.89076
0.10259 0.11472 0.28605 -0.36702 -0.21384 -0.9053
0.11709 0.11663 -0.28657 -0.35999 -0.20827 0.90941
0.10376 0.13841 0.27914 -0.33584 -0.25638 -0.90636
0.10523 0.2055 -0.25992 -0.27326 -0.3932 0.87791
0.11219 0.2239 -0.24954 -0.25649 -0.41597 0.87246
0.098875 0.26047 -0.23431 -0.21065 -0.47479 0.85452
0.076364 0.29451 0.21095 -0.079781 -0.5865 -0.80601
0.055767 0.41786 -0.0066946 0.2607 -0.96251 0.074866
0.065307 -0.2496 -0.16147 0.067204 0.9592 0.27464
0.075031 0.37451 -0.12344 0.10243 -0.84744 0.52091
0.067914 -0.25226 -0.019471 0.054397 0.97146 -0.23087
0.070221 -0.25231 -0.011315 0.021653 0.9984 -0.052256
0.067685 0.40848 0.061354 0.17231 -0.91635 -0.36141
0.071173 0.39714 0.085563 0.13626 -0.86947 -0.47482
0.073393 0.38628 0.10472 0.11479 -0.84145 -0.52801
0.047807 -0.25964 0.049743 0.26479 0.93256 0.24539
0.038826 -0.25917 0.10813 0.36641 0.91639 -0.16118
0.082934 0.35026 0.15921 0.042775 -0.77534 -0.63009
0.097775 0.16403 0.27383 -0.32083 -0.30178 -0.89777
0.11371 0.073671 0.28815 -0.42705 -0.11945 -0.8963
0.03739 -0.25829 -0.10612 0.34951 0.92497 0.14923
0.092392 -0.21308 -0.22488 -0.087326 0.70133 0.70747
0.10478 -0.18297 -0.24575 -0.13418 0.48791 0.86252
0.11078 -0.060047 0.28995 -0.36911 0.19822 -0.908
0.11886 -0.035983 0.29043 -0.41247 0.085211 -0.90698
0.11413 0.003806 0.29374 -0.42366 -0.0092196 -0.90577
0.12125 0.03559 -0.28993 -0.38972 0.079707 0.91748
0.12143 0.060414 -0.29002 -0.39313 -0.013574 0.91938
0.12485 0.086065 -0.28815 -0.38624 -0.063466 0.92021
0.067958 -0.25369 -0.14264 0.11231 0.96791 0.22481
0.055108 -0.26111 -0.045657 0.21829 0.93776 -0.2701
0.071531 -0.25356 -0.021327 0.093577 0.91904 -0.38288
0.078581 0.38579 -0.10431 0.1407 -0.85793 0.49413
0.074494 0.3929 -0.090469 0.16203 -0.8662 0.4727
0.074843 -0.25275 -0.018337 0.036756 0.99238 -0.11763
0.067817 0.40124 -0.072302 0.21611 -0.8782 0.42668
0.069967 0.41699 -0.032534 0.24929 -0.94267 0.22188
0.07117 0.42025 0.025149 0.21113 -0.96421 -0.1604
0.059196 -0.2526 0.14923 0.24096 0.88991 -0.3873
0.072246 -0.24717 0.16822 0.034074 0.91935 -0.39197
0.082999 -0.23526 0.19283 -0.057709 0.85639 -0.5131
0.088134 -0.20893 0.22562 -0.067658 0.67924 -0.73079
0.081405 -0.16617 0.25366 -0.064454 0.38871 -0.9191
0.073641 -0.14313 0.26033 -0.028584 0.3541 -0.93477
0.079315 -0.14051 0.2619 -0.070649 0.5229 -0.84946
0.093479 -0.099533 -0.26492 -0.01749 0.087336 0.99603
0.10192 -0.11117 0.27593 -0.18109 0.40575 -0.89586
0.11983 -0.0095918 -0.28027 -0.24104 0.19854 0.94999
0.12992 0.020874 -0.28423 -0.3663 0.16754 0.91529
0.11552 0.11815 0.28025 -0.3545 -0.20243 -0.91288
0.12763 0.15898 -0.27089 -0.33334 -0.28684 0.89811
0.11145 0.18194 0.26268 -0.28934 -0.33834 -0.89544
0.11601 0.24386 -0.23842 -0.2478 -0.44432 0.86092
0.10826 0.27099 -0.2262 -0.21734 -0.46714 0.85706
0.12365 0.13621 -0.27883 -0.34665 -0.24358 0.90582
0.10493 -0.045712 -0.27405 -0.16836 0.2637 0.9498
0.1194 0.20511 -0.25577 -0.27827 -0.38029 0.88201
0.087564 -0.23779 -0.19145 -0.012974 0.8719 0.48951
0.10917 0.30001 -0.20899 -0.13095 -0.5638 0.81546
0.097095 0.32561 -0.18863 -0.038684 -0.70112 0.71199
0.086643 0.37965 -0.11717 0.10452 -0.8501 0.51615
0.082158 -0.25079 0.019037 -0.00088114 0.9995 0.03162
0.084676 0.40704 0.070914 0.1602 -0.89098 -0.42484
0.079631 0.37188 0.12721 0.094806 -0.8208 -0.56329
0.084058 0.36387 0.13944 0.081224 -0.8283 -0.55437
0.050942 -0.2645 0.057955 0.41388 0.8784 0.23899
0.048743 -0.25583 0.13506 0.45267 0.81436 -0.36318
0.10605 -0.13952 -0.26163 -0.10997 0.18462 0.97664
0.095197 -0.11046 -0.26483 -0.024728 0.042256 0.9988
0.095286 -0.090317 -0.26644 -0.02562 0.15076 0.98824
0.11281 -0.076802 0.28512 -0.30086 0.25448 -0.91909
0.10383 -0.061957 -0.27101 -0.059407 0.17739 0.98235
0.10508 -0.049449 -0.27315 -0.0887 0.19372 0.97704
0.12446 -0.015332 0.28843 -0.42102 0.0272 -0.90664
0.11257 -0.029767 -0.27743 -0.1914 0.24237 0.95112
0.12694 0.023567 0.28715 -0.39273 -0.058332 -0.9178
0.1278 0.0045879 -0.28061 -0.28663 0.19231 0.93854
0.12448 0.043242 0.28632 -0.38162 -0.084145 -0.92048
0.13097 0.053815 -0.28645 -0.36982 0.0039947 0.92909
0.12076 0.092766 0.28227 -0.37668 -0.13356 -0.91667
0.11465 0.14181 0.27418 -0.33553 -0.25131 -0.90789
0.12322 0.16026 0.26586 -0.3207 -0.27509 -0.90635
0.10817 0.23073 0.24271 -0.20576 -0.42812 -0.87999
0.09792 0.24741 0.23645 -0.1944 -0.47095 -0.86048
0.12357 0.2583 -0.22864 -0.23938 -0.44761 0.86159
0.098789 0.26612 0.22599 -0.14987 -0.49826 -0.85398
0.088416 0.31143 0.19705 -0.058608 -0.62446 -0.77885
0.094824 0.3515 -0.15864 0.043918 -0.78216 0.62153
0.10172 -0.076994 -0.26834 -0.038931 0.16582 0.98539
0.052439 -0.26459 -0.063071 0.38611 0.9028 -0.1894
0.089385 0.36931 -0.13375 0.078588 -0.82242 0.56343
0.083002 -0.2523 -0.016714 0.063849 0.95319 -0.29556
0.086237 -0.25243 -0.0072089 0.019671 0.99753 -0.067501
0.086552 -0.2513 0.010221 0.010067 0.99879 -0.048095
0.083872 -0.24992 0.016297 0.036873 0.97753 0.20752
0.091683 0.39134 0.10067 0.12051 -0.83774 -0.53261
0.081735 -0.24519 0.0047459 0.13572 0.82074 0.55495
0.12253 0.18905 0.25677 -0.2708 -0.32502 -0.90611
0.10047 -0.18536 0.24267 -0.090406 0.53057 -0.84281
0.1018 -0.13853 0.26056 -0.1037 0.46438 -0.87955
0.11312 -0.11933 0.26967 -0.17892 0.42134 -0.88908
0.12895 0.00036146 0.28704 -0.39633 0.0086254 -0.91807
0.12344 0.069646 0.28404 -0.35834 -0.10961 -0.92714
0.13826 0.075086 -0.28279 -0.35344 -0.050527 0.93409
0.13643 0.1747 -0.26218 -0.30632 -0.31784 0.8973
0.12108 0.2755 -0.22047 -0.21991 -0.45506 0.86288
0.10671 -0.22336 -0.21148 -0.089096 0.76111 0.64248
0.089276 -0.2531 -0.018315 0.040945 0.98698 -0.15554
0.083758 0.40901 -0.065844 0.2225 -0.87328 0.43345
0.082886 0.42362 0.020774 0.23528 -0.96208 -0.13805
0.081246 -0.24467 0.0039034 0.25117 0.73207 0.63324
0.097453 0.36675 0.1371 0.085863 -0.81788 -0.56894
0.10418 0.35662 0.15259 0.049431 -0.78891 -0.61252
0.10904 0.33194 0.179 -0.0074204 -0.66699 -0.74503
0.13208 0.14328 0.26739 -0.3227 -0.24833 -0.91334
0.11373 -0.12473 -0.26313 -0.061607 0.13977 0.98827
0.10621 -0.10043 -0.26482 0.00068403 0.08396 0.99647
0.10867 -0.089746 -0.26621 -0.0044516 0.13416 0.99095
0.13589 -0.048227 0.28172 -0.37551 0.091435 -0.9223
0.13101 -0.036933 0.28462 -0.40666 0.081786 -0.90991
0.12016 -0.036602 -0.27405 -0.11651 0.19937 0.97297
0.12762 -0.016586 -0.27738 -0.17963 0.18733 0.96573
0.14279 0.1488 -0.26806 -0.3294 -0.25306 0.90965
0.13583 0.19586 -0.25416 -0.29712 -0.35832 0.88506
0.10929 0.2747 0.2193 -0.1397 -0.5001 -0.85462
0.10053 0.31961 0.1896 -0.045735 -0.62776 -0.77706
0.1161 0.33111 -0.18194 -0.033276 -0.71063 0.70278
0.084303 0.39736 -0.086103 0.18102 -0.84966 0.49528
0.079039 -0.25184 -0.015332 0.15945 0.87104 -0.46462
0.10225 0.38399 -0.11359 0.10989 -0.83637 0.53704
0.095285 0.39194 -0.098997 0.14858 -0.84397 0.51541
0.099159 -0.24924 0.0095588 0.03896 0.95936 0.27947
0.093695 0.37831 0.12036 0.090822 -0.81854 -0.56723
0.13295 0.077901 0.27965 -0.32122 -0.13177 -0.93779
0.10232 -0.2222 0.20942 -0.0436 0.76842 -0.63845
0.12352 -0.18339 -0.24216 -0.12096 0.48906 0.86382
0.10637 -0.15199 0.25683 -0.084817 0.30257 -0.94934
0.10379 -0.13739 0.26007 -0.084831 0.29473 -0.95181
0.11733 -0.14044 0.25738 -0.14276 0.44024 -0.88646
0.12176 -0.12862 0.26345 -0.17996 0.43837 -0.8806
0.13179 0.052872 0.28337 -0.29859 -0.093565 -0.94978
0.13676 0.023308 -0.28131 -0.27252 0.1154 0.95521
0.14363 0.050302 -0.28178 -0.34624 0.034728 0.9375
0.14178 0.087381 -0.28051 -0.2812 -0.096001 0.95484
0.12819 0.12186 0.27433 -0.34416 -0.21462 -0.91405
0.13154 0.22063 -0.24526 -0.2691 -0.39042 0.88043
0.13529 0.26473 -0.22189 -0.21454 -0.43818 0.87291
0.13579 0.27886 -0.21498 -0.18811 -0.42839 0.88379
0.1256 0.30471 -0.2032 -0.11874 -0.55434 0.82378
0.10339 0.36114 -0.1469 0.04709 -0.79675 0.60247
0.14016 0.20617 -0.24853 -0.26289 -0.36083 0.89481
0.14262 0.23037 -0.23761 -0.2248 -0.41266 0.88271
0.10733 -0.23308 -0.19854 0.008937 0.8071 0.59035
0.046745 -0.26536 -0.092028 0.55576 0.83113 0.01859
0.071966 -0.25424 -0.021721 0.33227 0.79026 -0.51486
0.10956 0.3699 -0.13548 0.060875 -0.81051 0.58256
0.10492 -0.25289 -0.011434 0.020134 0.99191 -0.12532
0.10216 0.40331 -0.082695 0.15648 -0.84557 0.51042
0.098061 0.4229 -0.040576 0.22765 -0.93408 0.27506
0.096252 -0.24512 0.002318 0.099928 0.85754 0.50462
0.080145 -0.2402 0.18046 0.15327 0.81952 -0.55218
0.13113 0.20763 0.24734 -0.22903 -0.34773 -0.90919
0.1017 -0.25091 0.016943 0.010295 0.99913 0.04046
0.11399 -0.079141 -0.26767 -0.0060789 0.1423 0.9898
0.13085 -0.082788 0.27787 -0.30345 0.22723 -0.92536
0.11612 -0.064531 -0.2698 -0.011926 0.1575 0.98745
0.14091 -0.035573 0.2795 -0.33197 0.068188 -0.94082
0.12002 -0.048572 -0.27234 -0.014689 0.15944 0.9871
0.13598 -0.019684 0.28267 -0.331 0.05773 -0.94186
0.13042 0.007963 -0.28044 -0.1224 0.12875 0.98409
0.13501 0.089481 0.27699 -0.26557 -0.13654 -0.95438
0.13265 0.10214 0.27634 -0.33101 -0.15291 -0.93116
0.133 0.1708 0.25903 -0.26095 -0.2823 -0.92315
0.13524 0.24513 -0.232 -0.23808 -0.44293 0.86437
0.05855 -0.24986 -0.15887 0.55247 0.64675 0.52582
0.12084 0.34885 -0.16277 -0.00025523 -0.75551 0.65513
0.059216 -0.25952 -0.042942 0.53851 0.73754 -0.40748
0.1011 -0.25148 -0.010563 0.071379 0.93609 -0.34444
0.10227 0.42816 0.022699 0.22508 -0.96075 -0.16215
0.10562 0.4146 0.064097 0.18131 -0.88932 -0.41981
0.10476 0.40175 0.087214 0.1427 -0.84865 -0.50935
0.10651 0.38844 0.10838 0.1196 -0.8156 -0.56612
0.11534 0.37051 0.13446 0.060196 -0.80247 -0.59364
0.04878 -0.25046 0.14697 0.65491 0.61737 -0.43583
0.134 0.026832 0.28387 -0.30351 -0.038598 -0.95205
0.096776 -0.24434 0.00057791 0.1746 0.76024 -0.62574
0.072682 -0.22835 -0.18781 0.41815 0.57112 0.70637
0.11878 -0.21909 -0.21413 0.094544 0.65111 0.75307
0.12933 -0.20141 -0.22973 -0.046436 0.59156 0.80492
0.11726 -0.18121 0.24288 -0.089235 0.49724 -0.86301
0.13192 -0.14316 -0.2577 -0.099968 0.27029 0.95757
0.12679 -0.11172 -0.26374 -0.030695 0.13883 0.98984
0.13633 -0.00066579 0.28336 -0.28246 0.026188 -0.95892
0.14314 0.061766 -0.2813 -0.21049 -0.027458 0.97721
0.14387 0.10314 -0.27803 -0.21521 -0.16235 0.96298
0.14522 0.11891 -0.27463 -0.28854 -0.19961 0.93643
0.1334 0.14826 0.26504 -0.21319 -0.25085 -0.94426
0.14302 0.18676 -0.25513 -0.24643 -0.34487 0.90573
0.12835 0.24103 0.23332 -0.1835 -0.43562 -0.88123
0.12319 0.27825 0.21491 -0.13932 -0.49389 -0.85829
0.11893 0.31244 0.19376 -0.068383 -0.57023 -0.81864
0.051707 -0.26675 -0.11073 0.66975 0.72785 0.14723
0.11134 0.39564 -0.097063 0.1214 -0.83603 0.53508
0.10677 -0.25167 0.0094137 0.0015969 0.99726 -0.073917
0.11885 -0.25082 0.012078 -0.028784 0.99957 -0.0047679
0.10788 -0.24671 0.002284 0.067996 0.90928 0.41059
0.12319 0.3419 0.16985 -0.032758 -0.6983 -0.71505
0.12009 -0.20614 0.22471 -0.047687 0.64226 -0.765
0.086318 -0.2438 -0.0016415 0.35242 0.61925 -0.70166
0.093538 -0.24066 -0.0054504 0.31671 0.5492 0.77335
0.12355 -0.13081 0.26006 -0.088819 0.29731 -0.95064
0.13406 -0.12561 0.26164 -0.16175 0.38727 -0.90766
0.12506 -0.093981 -0.26569 0.013453 0.12327 0.99228
0.12649 -0.080412 -0.26768 0.040048 0.14856 0.98809
0.1412 -0.052561 0.27824 -0.27547 0.10282 -0.95579
0.12572 -0.012742 -0.2775 -0.020013 0.15626 0.98751
0.13481 0.039213 -0.28305 -0.091605 0.017654 0.99564
0.13739 0.12871 0.26896 -0.23423 -0.21751 -0.94754
0.14873 0.14388 -0.26749 -0.23326 -0.25512 0.93835
0.14834 0.1667 -0.26121 -0.24625 -0.3016 0.92109
0.13751 0.19112 0.25117 -0.2228 -0.30691 -0.92529
0.059097 -0.25717 -0.03646 0.65799 0.59577 -0.46056
0.12882 0.37745 -0.12706 0.052288 -0.80598 0.58963
0.12642 0.38828 -0.11128 0.087332 -0.8236 0.5604
0.12767 0.41408 -0.072596 0.1528 -0.84792 0.50762
0.10984 -0.23897 -0.0091056 0.13878 0.72857 0.67077
0.11839 0.39476 0.10172 0.12405 -0.82449 -0.55211
0.044226 -0.26124 0.1225 0.79144 0.56488 -0.23353
0.1068 -0.22611 0.20378 0.11723 0.72853 -0.67491
0.063181 -0.25767 0.029307 0.65003 0.54207 0.53256
0.086398 -0.21903 0.19971 0.43451 0.44517 -0.78296
0.096129 -0.22989 0.19623 0.26335 0.66615 -0.69778
0.14728 -0.16613 -0.24741 -0.12658 0.39153 0.91142
0.12424 -0.14057 0.25851 -0.073025 0.26592 -0.96123
0.13984 -0.094118 0.27194 -0.21432 0.26885 -0.93903
0.12654 -0.057642 -0.27111 0.054263 0.16042 0.98556
0.14006 0.05051 0.28103 -0.2178 -0.075951 -0.97303
0.13778 0.071599 0.27905 -0.22379 -0.1383 -0.96478
0.15257 0.18925 -0.25231 -0.19191 -0.3443 0.91904
0.14738 0.20497 -0.24724 -0.21108 -0.36408 0.90713
0.14333 0.25351 -0.2258 -0.19648 -0.44033 0.87608
0.14776 0.2725 -0.21561 -0.16405 -0.42145 0.89189
0.14309 0.31415 -0.19415 -0.13565 -0.58915 0.79656
0.14934 0.32977 -0.18027 -0.091573 -0.6552 0.74989
0.15545 0.22279 -0.23811 -0.18245 -0.3921 0.90165
0.15654 0.23945 -0.2302 -0.17535 -0.42791 0.88665
0.15329 0.25727 -0.22207 -0.15264 -0.43049 0.8896
0.13186 0.36438 -0.14433 0.016689 -0.77751 0.62865
0.11765 -0.24656 0.0014059 0.092953 0.83597 -0.54084
0.12284 -0.25253 -0.0096667 0.01897 0.96823 -0.24933
0.12338 0.39996 -0.093207 0.11306 -0.82815 0.54898
0.12466 -0.2527 -0.009054 -0.01589 0.99669 -0.07972
0.13109 -0.25181 0.011344 -0.022047 0.99494 -0.098072
0.12025 -0.25017 0.011526 -0.00082536 0.97906 0.20358
0.11963 0.4072 0.082113 0.14627 -0.85376 -0.4997
0.13338 0.38 0.12411 0.040581 -0.77536 -0.63022
0.13547 0.3545 0.15543 -0.034195 -0.74471 -0.66651
0.068516 -0.25678 0.1676 0.65678 0.47606 -0.58482
0.060352 -0.25359 -0.15573 0.68507 0.54111 0.48773
0.13533 -0.17099 0.24652 -0.089629 0.44272 -0.89217
0.15077 -0.14038 -0.25582 -0.1257 0.27118 0.95428
0.14324 -0.11426 0.26451 -0.14444 0.33822 -0.92991
0.14211 -0.017769 0.28148 -0.1775 0.054798 -0.98259
0.12555 -0.022911 -0.27654 0.085627 0.14196 0.98616
0.12831 -0.0041422 -0.27924 0.079599 0.12827 0.98854
0.14266 0.026744 0.28161 -0.17975 -0.043292 -0.98276
0.13511 0.012703 -0.28186 0.04025 0.10364 0.9938
0.14104 0.039458 -0.28327 -0.015078 -0.017079 0.99974
0.14735 0.060276 -0.28136 -0.075347 -0.075316 0.99431
0.13969 0.087071 0.27649 -0.15844 -0.15042 -0.97584
0.15208 0.088634 -0.27841 -0.18186 -0.11771 0.97625
0.14508 0.16173 0.25958 -0.15272 -0.28796 -0.94539
0.15579 0.16739 -0.2593 -0.187 -0.308 0.93283
0.14076 0.17748 0.25516 -0.18284 -0.3141 -0.93162
0.13736 0.28434 0.20934 -0.12357 -0.49777 -0.85846
0.15234 0.2909 -0.20644 -0.15357 -0.46337 0.87276
0.13486 0.30005 0.20004 -0.10169 -0.52436 -0.8454
0.09448 -0.21984 -0.20536 0.37334 0.46465 0.80295
0.1497 0.35131 -0.15906 -0.050008 -0.73226 0.67918
0.11652 0.43344 -0.0084498 0.23765 -0.97047 0.041378
0.13243 -0.25012 0.017049 -0.032597 0.99946 0.0032378
0.12263 0.42319 0.052585 0.17143 -0.91328 -0.3695
0.073714 -0.25996 -0.019485 0.63204 0.45779 -0.62526
0.091622 -0.2231 0.20242 0.48837 0.29348 -0.82181
0.12362 -0.22737 -0.021965 0.17931 0.48493 0.85597
0.11595 -0.23539 0.014117 0.20496 0.56236 -0.80108
0.11279 -0.21719 0.21244 0.26994 0.48573 -0.83138
0.13081 -0.20431 0.22527 -0.0049367 0.58466 -0.81126
0.14649 -0.19117 -0.23476 -0.021669 0.49604 0.86803
0.13746 -0.13358 0.2593 -0.040632 0.26053 -0.96461
0.14812 -0.11936 -0.26171 -0.063292 0.23458 0.97003
0.14346 -0.09967 -0.26538 0.015716 0.16376 0.98638
0.13536 -0.06623 -0.27061 0.08471 0.15809 0.98378
0.14302 -0.040687 0.27954 -0.15866 0.10195 -0.98206
0.14432 0.0013187 0.28208 -0.17236 0.0091929 -0.98499
0.15466 0.07559 -0.27927 -0.10557 -0.10722 0.98862
0.15549 0.12055 -0.27209 -0.19583 -0.20593 0.95877
0.14622 0.11982 0.27019 -0.12459 -0.1942 -0.97302
0.15791 0.14005 -0.26692 -0.15934 -0.24202 0.9571
0.1518 0.21178 0.24125 -0.15962 -0.36448 -0.91743
0.13693 0.32139 0.18571 -0.080451 -0.60107 -0.79513
0.066819 -0.25752 -0.15987 0.73227 0.46209 0.50025
0.15173 0.36669 -0.1415 -0.022668 -0.76524 0.64335
0.13744 0.39329 -0.10558 0.075806 -0.81866 0.56925
0.13435 0.41534 0.072683 0.15429 -0.85689 -0.49187
0.13311 0.3998 0.097548 0.113 -0.8202 -0.5608
0.11928 -0.24095 -0.01656 0.30653 0.28659 0.90769
0.078472 -0.2597 0.013683 0.63213 0.39578 0.66616
0.15452 0.35508 0.15378 -0.056267 -0.74693 -0.66252
0.055422 -0.277 -0.097019 0.84435 0.533 0.054678
0.11135 -0.23506 -0.015913 0.30992 0.39679 0.86401
0.11321 -0.20023 -0.22218 0.35519 0.27506 0.89341
0.13072 -0.23924 0.013012 0.14163 0.72583 -0.67314
0.12869 -0.20582 -0.22423 0.16675 0.47781 0.86249
0.13828 -0.082278 -0.26831 0.061019 0.17367 0.98291
0.13355 -0.04435 -0.274 0.082433 0.15471 0.98452
0.13999 -0.026584 -0.27739 0.095556 0.13972 0.98557
0.15388 0.15401 0.26061 -0.1193 -0.28535 -0.95097
0.14996 0.1851 0.25115 -0.14043 -0.32154 -0.93642
0.1576 0.27125 -0.21461 -0.12705 -0.41977 0.89869
0.15474 0.30248 0.19636 -0.10058 -0.51732 -0.84986
0.16777 0.24104 -0.22733 -0.11771 -0.41738 0.90108
0.085476 -0.23133 -0.19688 0.54982 0.36946 0.74913
0.14644 0.38233 -0.12181 0.031036 -0.79916 0.60032
0.1407 0.40476 -0.089233 0.09378 -0.82326 0.55987
0.14254 -0.25186 -0.0068571 -0.02036 0.99375 -0.10976
0.13506 0.42651 -0.054212 0.20298 -0.89034 0.40755
0.14374 -0.2485 0.0058415 -0.019434 0.96354 0.26688
0.063707 -0.27707 -0.13454 0.81865 0.48161 0.31283
0.10501 -0.23601 0.011147 0.33451 0.41384 -0.84666
0.13931 -0.19937 0.22797 0.066404 0.48892 -0.8698
0.14455 -0.12124 0.26129 -0.069113 0.27328 -0.95945
0.15041 -0.06519 0.27578 -0.13732 0.14676 -0.97959
0.15559 0.0090618 0.28045 -0.11861 -0.016578 -0.9928
0.15568 0.029265 -0.2834 0.0096338 -0.011999 0.99988
0.15168 0.050437 0.27903 -0.14517 -0.067915 -0.98707
0.16434 0.098402 -0.2749 -0.14078 -0.17356 0.97471
0.1634 0.17702 -0.2542 -0.15163 -0.33322 0.93058
0.16434 0.19556 -0.24748 -0.1484 -0.34426 0.92707
0.16943 0.21385 -0.23942 -0.11561 -0.38427 0.91595
0.16614 0.25768 -0.21988 -0.11407 -0.41792 0.9013
0.10646 -0.21484 -0.21587 0.47646 0.20595 0.85473
0.16732 0.33913 -0.16946 -0.11406 -0.67934 0.72491
0.13535 -0.24954 -0.00020382 0.055433 0.91149 -0.40757
0.14919 -0.2509 0.012943 -0.041699 0.99447 -0.096391
0.14158 0.43929 0.011781 0.20657 -0.97391 -0.093922
0.15121 0.40698 0.090852 0.097578 -0.81714 -0.56812
0.14227 -0.24221 -0.0078776 0.059834 0.85856 0.50921
0.15982 0.3866 0.11731 -0.0026583 -0.74824 -0.66342
0.10599 -0.26561 -0.0022312 0.47298 0.32487 0.81899
0.15562 0.031076 0.27968 -0.11311 -0.049107 -0.99237
0.10117 -0.21716 0.2097 0.50588 0.18348 -0.84287
0.14178 -0.23384 -0.024173 0.16798 0.32044 0.93226
0.14777 -0.22627 -0.026983 0.14337 0.44893 0.88199
0.13159 -0.20418 0.22456 0.22846 0.36094 -0.90417
0.14684 -0.18831 -0.23451 0.1244 0.29773 0.94651
0.16731 -0.1731 -0.24133 -0.10079 0.37174 0.92285
0.14522 -0.1718 0.2449 -0.039929 0.45357 -0.89033
0.1481 -0.14202 0.25722 -0.016803 0.28712 -0.95775
0.17338 -0.15339 -0.24781 -0.13529 0.31644 0.93892
0.16915 -0.13632 -0.25412 -0.1394 0.31372 0.93923
0.16163 -0.096488 -0.26623 -0.01121 0.24449 0.96959
0.15504 -0.097993 0.26826 -0.11214 0.27191 -0.95577
0.15211 -0.074982 -0.27054 0.064697 0.18025 0.98149
0.14805 -0.061227 -0.27256 0.079504 0.16978 0.98227
0.15138 -0.043423 0.27848 -0.08281 0.12084 -0.98921
0.14744 -0.047223 -0.27488 0.092197 0.16162 0.98254
0.1468 -0.0031087 -0.28094 0.082414 0.10194 0.99137
0.1627 0.059106 -0.28053 -0.048523 -0.10969 0.99278
0.15097 0.075479 0.27675 -0.1215 -0.11536 -0.98587
0.16534 0.11799 -0.27049 -0.11282 -0.21161 0.97082
0.16905 0.1332 -0.26685 -0.10445 -0.23071 0.9674
0.17177 0.15559 -0.26055 -0.090617 -0.29417 0.95145
0.17349 0.28567 -0.20558 -0.13276 -0.45598 0.88003
0.15711 0.38734 -0.11552 0.01436 -0.78932 0.61382
0.13467 -0.19008 -0.23257 0.30698 0.13473 0.94213
0.091241 -0.24936 -0.19231 0.62106 0.34772 0.70241
0.16733 0.37199 -0.13436 -0.0552 -0.75632 0.65187
0.15785 0.40309 -0.0942 0.069343 -0.81147 0.58026
0.14772 -0.25093 -0.0017439 0.01253 0.96135 -0.27505
0.15046 0.41012 -0.082831 0.10709 -0.79642 0.59519
0.15195 -0.24909 0.017092 -0.030587 0.99953 7.6389e-006
0.14637 -0.23383 -0.019734 0.12214 0.69201 0.71148
0.12069 -0.27556 -0.007449 0.41546 0.24113 0.87707
0.14811 -0.25056 -0.021748 0.20552 0.20496 0.95695
0.12592 -0.24957 0.014551 0.32617 0.30236 -0.89565
0.10399 -0.23396 0.2083 0.54154 0.18058 -0.82105
0.13281 -0.2291 0.022784 0.21441 0.50636 -0.83524
0.14763 -0.19191 0.23247 0.11493 0.39354 -0.9121
0.15429 -0.18535 0.23667 0.004183 0.48625 -0.87381
0.15425 -0.1253 0.26098 0.023483 0.23927 -0.97067
0.16495 -0.11499 -0.26173 -0.077472 0.25685 0.96334
0.15511 -0.020852 0.28022 -0.092302 0.04821 -0.99456
0.17186 0.085952 -0.27655 -0.067537 -0.1628 0.98435
0.15453 0.11302 0.27027 -0.062827 -0.18451 -0.98082
0.15928 0.1643 0.25679 -0.087354 -0.30292 -0.949
0.17127 0.18804 -0.24971 -0.088306 -0.34777 0.93341
0.16051 0.22292 0.23496 -0.10802 -0.39045 -0.91426
0.17766 0.26363 -0.21604 -0.096683 -0.43152 0.89691
0.16831 0.31565 -0.18923 -0.12467 -0.57021 0.81198
0.17559 0.22913 -0.23217 -0.066754 -0.4122 0.90865
0.1334 -0.19773 -0.23129 0.36847 0.080312 0.92616
0.088216 -0.26462 -0.18108 0.69543 0.34597 0.62983
0.15674 -0.25126 -0.0052016 -0.00095534 0.99199 -0.12631
0.14039 0.42528 0.056086 0.19622 -0.8875 -0.41695
0.096206 -0.3087 0.023995 0.68016 0.41893 0.60157
0.11555 -0.2717 0.0027359 0.44154 0.31436 -0.84037
0.12011 -0.21761 -0.22275 0.44692 0.14513 0.88272
0.12997 -0.23003 0.021862 0.25731 0.36766 -0.89365
0.15087 -0.24623 0.0078161 0.076611 0.86318 -0.49905
0.18456 -0.13819 -0.25088 -0.15095 0.30624 0.93991
0.18309 -0.12219 -0.25721 -0.13388 0.31762 0.93872
0.15533 -0.10673 0.26465 -0.00022985 0.26232 -0.96498
0.16116 -0.065897 0.27435 -0.047791 0.16484 -0.98516
0.15843 -0.033902 -0.27813 0.091928 0.15479 0.98366
0.16529 0.031584 0.27868 -0.054207 -0.048104 -0.99737
0.16175 0.050255 0.27768 -0.06399 -0.066943 -0.9957
0.18003 0.065864 -0.27916 -0.049814 -0.13264 0.98991
0.16225 0.068101 0.2765 -0.036637 -0.090439 -0.99523
0.16074 0.08948 0.27394 -0.044152 -0.14161 -0.98894
0.16235 0.18841 0.24861 -0.079283 -0.3302 -0.94058
0.19092 0.31159 -0.18786 -0.15548 -0.55963 0.81403
0.15845 0.3288 0.17824 -0.073154 -0.62133 -0.78013
0.1767 0.35403 -0.15267 -0.11548 -0.72065 0.68361
0.095425 -0.27887 -0.18173 0.72255 0.30032 0.62268
0.18973 0.37382 -0.12965 -0.09551 -0.71807 0.68938
0.15793 0.43605 -0.044092 0.18435 -0.92448 0.3337
0.15869 -0.24537 -0.0032655 0.020721 0.94391 0.32956
0.15867 -0.25679 -0.022725 0.19496 0.15956 0.96774
0.11803 -0.3258 0.015346 0.53018 0.45663 0.71443
0.09577 -0.2945 -0.019647 0.64369 0.37983 -0.66438
0.14252 -0.23865 0.02314 0.24146 0.28971 -0.92616
0.15441 -0.23474 -0.026054 0.15922 0.24597 0.95611
0.16211 -0.22612 -0.029396 0.13326 0.31402 0.94002
0.11858 -0.20151 0.22097 0.36262 0.21121 -0.90769
0.17216 -0.16761 -0.2427 -0.019592 0.29337 0.9558
0.1682 -0.073119 -0.27181 0.052351 0.20476 0.97741
0.1615 -0.051126 -0.27549 0.086767 0.17339 0.98102
0.16654 0.014837 0.27916 -0.065152 -0.022678 -0.99762
0.16897 0.010936 -0.28376 0.025243 0.016333 0.99955
0.17461 0.041721 -0.28213 -0.037572 -0.09246 0.99501
0.18064 0.10718 -0.2722 -0.052697 -0.1971 0.97897
0.18085 0.12929 -0.26703 -0.051891 -0.23805 0.96987
0.16461 0.12477 0.26775 -0.034474 -0.21808 -0.97532
0.182 0.20216 -0.24319 -0.060095 -0.37298 0.92589
0.16895 0.24018 0.22679 -0.092737 -0.41533 -0.90493
0.18316 0.24842 -0.22272 -0.077823 -0.4298 0.89956
0.19309 0.33617 -0.1674 -0.17391 -0.6752 0.71684
0.1722 0.3628 0.14195 -0.066289 -0.76691 -0.63832
0.19026 0.36279 -0.14094 -0.14685 -0.70788 0.6909
0.17354 0.39046 -0.11214 0.0053802 -0.77206 0.63552
0.11133 -0.24278 -0.21169 0.57114 0.2279 0.78858
0.10326 -0.26741 -0.19555 0.6766 0.28236 0.68006
0.096391 -0.29087 -0.17745 0.74837 0.25631 0.61175
0.19607 0.35169 -0.15065 -0.17976 -0.70021 0.69094
0.16748 -0.25132 0.0033172 -0.034125 0.99487 -0.095282
0.16667 0.43035 0.057066 0.14915 -0.88814 -0.4347
0.17324 0.41262 0.086469 0.04713 -0.79926 -0.59914
0.078307 -0.32853 -0.11541 0.94225 0.30514 0.13804
0.086981 -0.31162 -0.041155 0.78384 0.35422 -0.51003
0.15433 -0.28964 -0.015873 0.23624 0.25462 0.93774
0.14065 -0.19147 0.23135 0.2747 0.2521 -0.92789
0.15402 -0.17573 -0.23905 0.22696 0.10228 0.96852
0.17336 -0.16495 -0.24373 0.092009 0.11852 0.98868
0.16989 -0.24901 0.014187 -0.056911 0.99715 -0.049484
0.16961 -0.17379 0.24222 -0.026376 0.41744 -0.90832
0.19583 -0.14859 -0.24637 -0.10185 0.24005 0.9654
0.17157 -0.15293 0.25184 -0.05235 0.37677 -0.92483
0.17203 -0.13252 0.2598 -0.017336 0.31569 -0.94871
0.16412 -0.085707 0.27076 0.025021 0.21248 -0.97685
0.16845 -0.063443 0.27488 0.011065 0.1532 -0.98813
0.16795 -0.043683 0.27762 -0.02914 0.1041 -0.99414
0.16871 -0.0015009 0.27916 -0.064203 -0.0045713 -0.99793
0.16796 0.10122 0.27238 -0.019496 -0.16992 -0.98527
0.18617 0.15031 -0.26136 -0.044943 -0.26566 0.96302
0.18942 0.16827 -0.2559 -0.04367 -0.31736 0.9473
0.18276 0.18326 -0.25055 -0.048071 -0.3497 0.93563
0.17574 0.19865 0.24393 -0.055409 -0.3522 -0.93428
0.18524 0.21779 -0.23655 -0.059976 -0.39652 0.91606
0.19148 0.28132 -0.20528 -0.12868 -0.47334 0.87143
0.17855 0.31072 0.18827 -0.13075 -0.5407 -0.83099
0.17108 0.37233 0.1311 -0.063619 -0.73339 -0.67683
0.17377 0.40296 -0.096134 0.055799 -0.77539 0.62901
0.1368 -0.21645 -0.23097 0.41891 0.089728 0.90358
0.17141 -0.23204 -0.024379 0.03473 0.73313 0.6792
0.15323 -0.27843 0.014154 0.22568 0.28164 -0.9326
0.12285 -0.24422 0.21768 0.52749 0.16964 -0.83245
0.14276 -0.23208 -0.23251 0.42589 0.076859 0.9015
0.1615 -0.1788 -0.24094 0.24083 0.028317 0.97015
0.15429 -0.23413 0.024347 0.15186 0.62599 -0.7649
0.15737 -0.17666 0.23964 0.23132 0.14356 -0.96223
0.19936 -0.13668 -0.24882 -0.15062 0.29873 0.94238
0.16762 -0.10857 0.2657 0.049245 0.24437 -0.96843
0.19643 -0.12338 -0.25493 -0.11324 0.38424 0.91626
0.18235 -0.10128 -0.26506 -0.018145 0.32287 0.94627
0.17752 -0.058929 -0.27546 0.055361 0.19925 0.97838
0.18901 0.031254 -0.28239 -0.062198 -0.072251 0.99545
0.19354 0.083191 -0.2756 -0.065552 -0.15752 0.98534
0.19485 0.23765 -0.2271 -0.065636 -0.42637 0.90216
0.17878 0.26457 0.2141 -0.092191 -0.45395 -0.88625
0.17738 0.3926 0.11004 -0.029791 -0.74014 -0.67179
0.1128 -0.27771 -0.20101 0.67951 0.26314 0.68485
0.11226 -0.29247 -0.19451 0.70485 0.23661 0.66873
0.10135 -0.34409 -0.16455 0.83672 0.24354 0.4905
0.18589 -0.24764 0.013316 -0.053559 0.99846 -0.014485
0.1828 -0.24596 0.00022847 -0.050979 0.96264 0.26593
0.10312 -0.30857 -0.17894 0.76182 0.24123 0.6012
0.16257 -0.31015 -0.010706 0.23519 0.32592 0.91568
0.12449 -0.2663 0.21369 0.57819 0.21842 -0.78612
0.1546 -0.26451 0.018687 0.21357 0.27528 -0.93734
0.15942 -0.24618 0.024874 0.1868 0.26931 -0.94476
0.18579 -0.24002 -0.029206 0.1204 0.18986 0.9744
0.13066 -0.21595 0.22583 0.45273 0.064126 -0.88934
0.1649 -0.23158 0.029628 0.1558 0.27834 -0.94776
0.15932 -0.22808 0.0296 0.16124 0.3956 -0.90416
0.13701 -0.19676 0.22928 0.3969 0.077315 -0.9146
0.15761 -0.19366 -0.23998 0.29186 -0.0038465 0.95645
0.14655 -0.18967 0.2344 0.33609 0.12401 -0.93363
0.16376 -0.1758 0.2408 0.11565 0.27628 -0.95409
0.17936 -0.1676 0.24416 0.01176 0.34471 -0.93864
0.18435 -0.030608 0.27812 -0.03813 0.044371 -0.99829
0.17553 -0.019076 0.27887 -0.050021 0.024294 -0.99845
0.1904 0.00077416 -0.28372 -0.024364 0.019488 0.99951
0.18018 0.012662 0.2787 -0.035227 -0.0073915 -0.99935
0.17682 0.036355 0.27838 -0.020984 -0.037702 -0.99907
0.20257 0.053997 -0.27924 -0.086995 -0.10978 0.99014
0.1767 0.059737 0.27696 -0.013279 -0.071369 -0.99736
0.17573 0.082393 0.27509 -0.0068222 -0.12429 -0.99222
0.17552 0.13798 0.26389 -0.040227 -0.25328 -0.96656
0.179 0.15628 0.25855 -0.032186 -0.29967 -0.9535
0.18209 0.18136 0.24985 -0.015528 -0.33446 -0.94228
0.17797 0.21862 0.23587 -0.054918 -0.39689 -0.91622
0.18486 0.23268 0.22894 -0.063161 -0.41956 -0.90553
0.19661 0.26481 -0.21337 -0.10911 -0.45609 0.88322
0.17389 -0.2408 0.019102 0.056756 0.81294 -0.57957
0.17553 -0.25011 0.00085844 -0.0016403 0.96503 -0.26212
0.17884 0.40633 -0.092456 0.094405 -0.73026 0.67662
0.1775 0.43183 -0.062335 0.18852 -0.8456 0.49943
0.18878 -0.2493 0.006144 -0.062887 0.98703 -0.14768
0.1634 0.43882 0.03402 0.29298 -0.92274 -0.25042
0.19941 0.40366 0.096462 -0.033797 -0.71551 -0.69778
0.09267 -0.37778 -0.13354 0.97836 -0.11321 0.17317
0.097941 -0.36237 -0.058069 0.87259 0.30205 -0.38386
0.13727 -0.33386 0.0091125 0.54624 0.24738 0.80027
0.162 -0.31783 -0.0081601 0.3117 0.27047 0.91087
0.15344 -0.2933 0.0095752 0.25759 0.2563 -0.93164
0.18273 -0.28257 -0.021767 0.12424 0.22636 0.96609
0.1781 -0.26364 -0.024949 0.12747 0.16286 0.97838
0.1583 -0.21409 -0.2402 0.33065 0.045495 0.94266
0.1788 -0.22534 0.03336 0.11861 0.41696 -0.90115
0.18176 -0.2237 -0.033154 0.12894 0.31153 0.94145
0.17748 -0.23058 0.030013 0.08217 0.58883 -0.80407
0.19266 -0.15195 -0.24536 -0.025467 0.14079 0.98971
0.18027 -0.092554 0.27059 0.0090739 0.20541 -0.97863
0.20991 -0.1184 -0.25595 -0.134 0.43391 0.89093
0.18015 -0.069084 0.27433 0.010339 0.14708 -0.98907
0.19332 -0.087609 -0.26901 -0.011618 0.27831 0.96042
0.18018 -0.034437 -0.27992 0.058084 0.14796 0.98729
0.19735 0.11026 -0.27073 -0.045442 -0.20278 0.97817
0.183 0.11852 0.26838 -0.014689 -0.21482 -0.97654
0.19891 0.13517 -0.26494 -0.035273 -0.24602 0.96862
0.20194 0.19133 -0.24663 -0.052418 -0.36617 0.92907
0.20947 0.25406 -0.21739 -0.115 -0.46305 0.87884
0.2077 0.29684 -0.19372 -0.17378 -0.5159 0.83884
0.21223 0.31582 -0.17977 -0.20786 -0.59644 0.77528
0.19359 0.35812 0.14505 -0.11763 -0.73728 -0.66527
0.21001 0.34962 -0.14885 -0.19158 -0.69426 0.69376
0.21163 0.35672 -0.14131 -0.15967 -0.68265 0.71309
0.19949 0.38474 -0.11732 -0.060042 -0.72084 0.6905
0.15239 -0.2497 -0.23596 0.43825 0.10398 0.89282
0.1341 -0.27549 -0.22049 0.57891 0.18355 0.79446
0.12008 -0.31223 -0.19692 0.70388 0.19631 0.68265
0.11108 -0.36234 -0.17324 0.82634 0.14436 0.54435
0.22224 0.3309 -0.16385 -0.20875 -0.65455 0.72663
0.1942 0.41751 0.082684 0.090866 -0.74659 -0.65905
0.18996 -0.23683 -0.019322 0.015495 0.84545 0.53383
