0.2952 0.65988 -0.23431 -0.66495 -0.35208 0.6587
-0.33399 0.66026 -0.23714 0.65194 -0.35523 0.66991
-0.34685 0.63488 -0.23637 0.68663 -0.2952 0.66438
0.31812 0.6118 -0.23121 -0.72601 -0.22325 0.65044
-0.3528 0.61134 -0.23941 0.69733 -0.24296 0.67431
0.31868 0.58875 -0.23687 -0.72587 -0.18237 0.66321
-0.36166 0.59166 -0.23727 0.71368 -0.2137 0.66708
0.33604 0.54683 -0.22717 -0.77532 -0.12228 0.61962
0.31825 0.56926 -0.24282 -0.72711 -0.1699 0.66517
-0.37446 0.56759 -0.22967 0.7543 -0.14887 0.63943
-0.36731 0.54437 -0.2417 0.73469 -0.097556 0.67135
0.33586 0.52182 -0.23142 -0.78061 -0.054306 0.62265
-0.37542 0.5201 -0.23504 0.76715 -0.029046 0.64081
0.33457 0.49627 -0.23353 -0.77502 0.023637 0.6315
-0.37923 0.49572 -0.23007 0.783 0.04037 0.62072
0.32697 0.471 -0.23978 -0.74366 0.093276 0.66202
-0.38274 0.47351 -0.22279 0.78949 0.085747 0.60774
0.3337 0.44985 -0.22888 -0.76399 0.13034 0.63193
-0.37063 0.44976 -0.23431 0.74855 0.14097 0.64792
0.32041 0.42727 -0.23826 -0.71576 0.18154 0.67434
-0.35498 0.42795 -0.24497 0.70079 0.18012 0.69025
0.31128 0.40796 -0.24201 -0.69191 0.20996 0.69078
-0.35765 0.40861 -0.23753 0.7037 0.19388 0.68353
0.30595 0.38486 -0.23958 -0.67766 0.26327 0.68663
-0.35725 0.38366 -0.22968 0.70661 0.26046 0.65792
0.29531 0.35758 -0.23798 -0.64858 0.34525 0.67834
-0.33881 0.36082 -0.23882 0.66874 0.31823 0.67195
0.28405 0.33452 -0.23553 -0.63047 0.40423 0.66265
-0.3372 0.33519 -0.22617 0.67184 0.39655 0.6256
0.26858 0.31082 -0.23442 -0.6032 0.46207 0.65011
-0.31985 0.31431 -0.23062 0.64903 0.43109 0.62683
0.25312 0.29218 -0.23475 -0.58668 0.48384 0.64939
-0.29597 0.29824 -0.24315 0.59083 0.45435 0.6667
-0.31164 0.29179 -0.22261 0.64746 0.48092 0.5912
0.2473 0.27476 -0.22654 -0.58985 0.48192 0.64794
0.23015 0.27554 -0.24195 -0.5404 0.49696 0.67897
-0.29305 0.27413 -0.22768 0.59776 0.51504 0.61435
0.21051 0.26062 -0.24525 -0.49849 0.4834 0.7196
-0.2471 0.25646 -0.24983 0.47221 0.50469 0.72271
-0.27018 0.26073 -0.23651 0.53752 0.5109 0.67086
0.19393 0.25204 -0.2507 -0.46863 0.4014 0.78694
-0.23019 0.24528 -0.25248 0.44151 0.44431 0.77952
-0.25477 0.24887 -0.23931 0.51177 0.45607 0.72807
0.17859 0.25256 -0.25829 -0.43238 0.22238 0.87384
0.15254 0.24552 -0.26852 -0.36086 0.2759 0.89088
-0.17847 0.23921 -0.27199 0.32235 0.3269 0.88838
-0.20277 0.24325 -0.26468 0.36548 0.32783 0.87118
0.17493 0.27133 -0.25889 -0.32565 -0.33081 0.88573
0.16519 0.26006 -0.26471 -0.35915 -0.04375 0.93225
0.14344 0.25608 -0.27193 -0.29643 -0.03592 0.95438
0.12955 0.24898 -0.27654 -0.30264 0.098876 0.94796
-0.16151 0.24278 -0.27864 0.28419 0.13612 0.94906
-0.18289 0.25128 -0.27247 0.29293 0.048485 0.95491
-0.21053 0.26047 -0.26321 0.36706 -0.065718 0.92787
0.21906 0.27003 -0.24194 -0.39332 -0.52183 0.75696
0.19184 0.26999 -0.25433 -0.32073 -0.49823 0.80554
0.14958 0.26754 -0.26895 -0.254 -0.3213 0.91228
0.12959 0.25995 -0.27596 -0.25436 -0.22869 0.93968
0.11449 0.25443 -0.28101 -0.25227 -0.11467 0.96084
-0.16186 0.25809 -0.27797 0.21398 -0.19814 0.95653
-0.18384 0.26497 -0.27141 0.2414 -0.27257 0.93136
-0.20452 0.26843 -0.26404 0.29214 -0.35039 0.88988
-0.22794 0.2716 -0.25381 0.37422 -0.337 0.86394
0.23902 0.25486 -0.24175 -0.43777 -0.53492 0.72265
0.16758 0.26877 -0.26341 -0.25823 -0.46196 0.84847
-0.21857 0.26636 -0.26123 0.30016 -0.47014 0.82998
-0.24357 0.26857 -0.24888 0.38075 -0.47092 0.79578
-0.26206 0.257 -0.24767 0.406 -0.51483 0.75506
0.26606 0.2385 -0.23614 -0.50901 -0.5136 0.69074
0.21242 0.25919 -0.2532 -0.36353 -0.5394 0.75953
-0.28527 0.25846 -0.2323 0.4726 -0.52147 0.71044
0.28889 0.21708 -0.23357 -0.56498 -0.46288 0.68304
-0.28277 0.23951 -0.24767 0.45526 -0.50374 0.73416
-0.30332 0.24109 -0.23304 0.50262 -0.50408 0.70234
0.31027 0.19432 -0.22937 -0.61164 -0.40528 0.67945
-0.30397 0.21678 -0.24858 0.51118 -0.44633 0.7345
-0.32186 0.22143 -0.23264 0.55315 -0.45278 0.6993
-0.32896 0.19666 -0.24142 0.5798 -0.38244 0.71943
0.33235 0.1418 -0.23341 -0.66371 -0.22852 0.71223
0.31166 0.16829 -0.24231 -0.61948 -0.31846 0.71751
-0.3446 0.16944 -0.2411 0.62744 -0.30389 0.71692
-0.3526 0.14608 -0.24274 0.64824 -0.25263 0.71831
0.33328 0.11714 -0.23921 -0.67529 -0.15764 0.72051
-0.36094 0.12629 -0.24166 0.66289 -0.22913 0.7128
0.33433 0.097641 -0.24153 -0.69721 -0.13681 0.7037
-0.36956 0.10471 -0.23998 0.68076 -0.18904 0.70769
0.3528 0.05926 -0.22868 -0.76377 -0.10008 0.63768
0.33507 0.081555 -0.24441 -0.7159 -0.1478 0.68238
-0.3743 0.078623 -0.24127 0.69224 -0.11923 0.71175
-0.37906 0.054451 -0.23933 0.70545 -0.051843 0.70686
0.35405 0.039459 -0.23028 -0.78227 -0.075862 0.61831
-0.37011 0.035338 -0.24904 0.69643 -0.031343 0.71694
0.35443 0.018598 -0.2316 -0.78964 -0.040062 0.61226
-0.37709 0.019011 -0.24259 0.71435 -0.042626 0.69849
0.35448 -0.00087345 -0.23243 -0.79209 -0.017295 0.61016
-0.38475 0.0056969 -0.23586 0.74004 -0.074029 0.66848
0.35443 -0.019112 -0.23276 -0.79417 -0.0069441 0.60765
-0.39409 -0.011145 -0.22717 0.77972 -0.082312 0.62069
0.35366 -0.036813 -0.23386 -0.79374 -0.0032273 0.60825
-0.38609 -0.02722 -0.2394 0.75992 -0.096546 0.6428
0.35005 -0.055354 -0.23852 -0.78229 0.0008613 0.62292
-0.39124 -0.04672 -0.23557 0.78419 -0.075332 0.61593
0.35553 -0.074453 -0.2314 -0.79893 0.00039899 0.60143
-0.39582 -0.067475 -0.23175 0.80539 -0.040166 0.59139
0.35534 -0.093295 -0.23166 -0.79972 -0.0015619 0.60037
-0.39826 -0.087485 -0.22917 0.81835 -0.011527 0.57461
0.35796 -0.10956 -0.22814 -0.80612 -0.00036396 0.59175
-0.40069 -0.1066 -0.22549 0.8313 0.012695 0.55567
0.355 -0.12331 -0.2321 -0.79867 -0.0093276 0.6017
-0.3984 -0.12593 -0.22816 0.82292 0.032209 0.56724
0.35379 -0.1378 -0.23412 -0.79024 -0.029814 0.61207
-0.40171 -0.14399 -0.22155 0.83662 0.032062 0.54685
0.35072 -0.15203 -0.23878 -0.77088 -0.057012 0.63442
-0.39097 -0.16053 -0.23709 0.80662 0.018183 0.59079
0.34606 -0.16767 -0.24575 -0.73658 -0.075283 0.67215
-0.394 -0.17677 -0.2324 0.8125 0.0064883 0.58292
0.35459 -0.17702 -0.23803 -0.70735 -0.15262 0.69019
-0.39498 -0.19356 -0.23088 0.80887 0.0016243 0.58799
0.3462 -0.19607 -0.24947 -0.64658 -0.13753 0.75035
-0.39686 -0.21489 -0.2281 0.81097 0.041233 0.58363
0.34392 -0.22691 -0.25662 -0.46882 -0.16947 0.86688
0.33934 -0.21682 -0.25827 -0.59333 -0.10301 0.79834
-0.40137 -0.23913 -0.21829 0.82963 0.10799 0.54776
0.34941 -0.23978 -0.25751 -0.34382 -0.20997 0.91526
0.33096 -0.24082 -0.26623 -0.52351 -0.041529 0.85101
-0.39025 -0.2631 -0.22911 0.78682 0.16947 0.59345
0.35762 -0.25954 -0.25937 -0.27057 -0.18899 0.94397
0.33411 -0.25258 -0.26544 -0.37769 -0.088365 0.92171
0.32168 -0.26772 -0.27108 -0.43298 0.048538 0.9001
-0.37374 -0.28511 -0.24122 0.72607 0.20938 0.65496
0.3804 -0.28555 -0.25735 -0.26889 -0.12775 0.95466
0.33742 -0.26867 -0.26648 -0.25619 -0.096322 0.96181
0.32054 -0.28275 -0.27114 -0.27105 0.031674 0.96205
0.31133 -0.2957 -0.27281 -0.34928 0.13589 0.92711
-0.37631 -0.30096 -0.23376 0.73498 0.18814 0.65147
0.36354 -0.28348 -0.26213 -0.2517 -0.12672 0.95947
0.33979 -0.28782 -0.26772 -0.18819 -0.078189 0.97902
0.31866 -0.2974 -0.2714 -0.14839 0.0067889 0.98891
0.30706 -0.3077 -0.27206 -0.21242 0.089261 0.97309
0.30132 -0.31598 -0.27307 -0.34273 0.14889 0.92756
-0.36783 -0.32053 -0.23687 0.68582 0.18487 0.7039
0.37584 -0.31103 -0.26115 -0.25213 -0.052833 0.96625
0.35261 -0.30729 -0.26662 -0.19294 -0.044366 0.98021
0.32874 -0.31323 -0.27023 -0.11862 -0.0042485 0.99293
0.30899 -0.31774 -0.27184 -0.096558 0.030503 0.99486
0.29743 -0.32658 -0.27242 -0.17562 0.094861 0.97988
0.28998 -0.33814 -0.27289 -0.31127 0.21325 0.92609
-0.34734 -0.33831 -0.24976 0.57489 0.20287 0.79269
0.37484 -0.33659 -0.26201 -0.23645 0.0088118 0.9716
0.35197 -0.32791 -0.26715 -0.17718 -0.0027251 0.98417
0.32663 -0.3321 -0.2703 -0.09551 0.01531 0.99531
0.30695 -0.33414 -0.2716 -0.07237 0.032246 0.99686
0.29214 -0.33959 -0.27236 -0.078913 0.056299 0.99529
0.28432 -0.34507 -0.27252 -0.17117 0.11949 0.97797
0.27374 -0.35997 -0.27272 -0.26026 0.23475 0.93656
-0.31776 -0.36085 -0.26118 0.46639 0.28695 0.83675
-0.32897 -0.34958 -0.25751 0.43852 0.13793 0.88807
0.37397 -0.35983 -0.26133 -0.22368 0.064819 0.97251
0.35189 -0.35152 -0.26673 -0.17607 0.045567 0.98332
0.32489 -0.35013 -0.27016 -0.087327 0.036031 0.99553
0.30372 -0.3527 -0.27127 -0.049614 0.045546 0.99773
0.28794 -0.35731 -0.27166 -0.05915 0.070003 0.99579
0.27604 -0.36316 -0.27184 -0.10388 0.12833 0.98628
0.26235 -0.37411 -0.27154 -0.12592 0.20444 0.97075
0.2525 -0.38622 -0.27008 -0.20741 0.33101 0.92055
-0.29017 -0.3819 -0.26648 0.36566 0.34521 0.86436
-0.30223 -0.36545 -0.26649 0.30472 0.14128 0.94191
-0.32692 -0.34699 -0.25913 0.34862 -0.041039 0.93636
0.36422 -0.38042 -0.2615 -0.2015 0.12439 0.97156
0.34281 -0.37597 -0.26646 -0.15032 0.1128 0.98218
0.31918 -0.3705 -0.26951 -0.071826 0.082699 0.99398
0.30124 -0.37586 -0.26992 -0.041735 0.097372 0.99437
0.28432 -0.37926 -0.27004 -0.029213 0.1178 0.99261
0.26841 -0.38382 -0.26971 -0.032062 0.16047 0.98652
0.25208 -0.39545 -0.26778 -0.046266 0.25697 0.96531
0.23897 -0.40664 -0.26484 -0.071406 0.35142 0.93349
0.23081 -0.41483 -0.26277 -0.16168 0.4463 0.88016
-0.26521 -0.39948 -0.26883 0.29147 0.36652 0.88358
-0.27576 -0.38665 -0.26947 0.23486 0.21661 0.94759
-0.28196 -0.37612 -0.26982 0.14805 0.070902 0.98644
-0.30349 -0.36603 -0.26697 0.19932 -0.021949 0.97969
-0.33242 -0.35548 -0.25856 0.3093 -0.1208 0.94326
0.34703 -0.40506 -0.26055 -0.15968 0.20655 0.96532
0.32405 -0.39734 -0.26568 -0.10002 0.17967 0.97863
0.30208 -0.40424 -0.26593 -0.046141 0.20253 0.97819
0.27991 -0.40672 -0.26576 -0.00062403 0.21972 0.97556
0.25881 -0.41023 -0.26452 0.033978 0.26296 0.96421
0.23844 -0.42387 -0.25869 0.055611 0.35643 0.93267
0.22786 -0.43048 -0.25525 -0.015395 0.43389 0.90083
0.21785 -0.43669 -0.25251 -0.071408 0.4925 0.86738
0.21227 -0.43719 -0.25297 -0.16247 0.53721 0.82765
0.20015 -0.44216 -0.25296 -0.21149 0.59272 0.77714
-0.21888 -0.42539 -0.27005 0.19945 0.43708 0.87703
-0.23883 -0.41491 -0.27003 0.2267 0.37006 0.90092
-0.25212 -0.40265 -0.2707 0.1747 0.21898 0.95996
-0.26271 -0.39148 -0.27129 0.10284 0.080514 0.99143
-0.27922 -0.38488 -0.27035 0.079123 -0.012599 0.99679
-0.30781 -0.37731 -0.26695 0.16967 -0.078159 0.9824
-0.33929 -0.36967 -0.25839 0.299 -0.14525 0.94313
0.3239 -0.42665 -0.2581 -0.096005 0.28117 0.95484
0.29615 -0.43289 -0.25824 -0.02154 0.31735 0.94807
0.27148 -0.4363 -0.25678 0.043758 0.34738 0.9367
0.25174 -0.43556 -0.25556 0.0851 0.36822 0.92583
0.17913 -0.46503 -0.23871 -0.15895 0.67137 0.72388
0.16556 -0.4686 -0.23887 -0.19749 0.69728 0.68906
0.15133 -0.46708 -0.245 -0.21527 0.69743 0.68355
-0.15746 -0.45458 -0.26574 0.069331 0.43646 0.89705
-0.17237 -0.44426 -0.26924 0.12704 0.49745 0.85814
-0.1957 -0.43562 -0.27016 0.1601 0.41505 0.8956
-0.21348 -0.4255 -0.27073 0.13227 0.28574 0.94913
-0.22909 -0.41511 -0.27159 0.10627 0.1818 0.97758
-0.24213 -0.40692 -0.27157 0.060166 0.078132 0.99513
-0.25597 -0.40187 -0.27147 0.029401 0.012662 0.99949
-0.27121 -0.4015 -0.27115 0.031287 -0.015518 0.99939
-0.29094 -0.39873 -0.27005 0.072285 -0.037053 0.9967
-0.31816 -0.39449 -0.26687 0.17617 -0.076455 0.98139
-0.349 -0.38957 -0.25828 0.31364 -0.11544 0.9425
0.13598 -0.48125 -0.23459 -0.2005 0.73364 0.64929
0.11162 -0.48863 -0.23264 -0.13405 0.76492 0.63002
0.088657 -0.48997 -0.23472 -0.081295 0.77473 0.62704
0.066827 -0.49175 -0.23462 -0.03915 0.78564 0.61745
0.04647 -0.49208 -0.23485 -0.011808 0.79042 0.61245
0.028376 -0.49171 -0.23541 -0.0022084 0.79136 0.61135
0.011128 -0.49159 -0.23558 -0.00097524 0.79161 0.61103
-0.0062099 -0.49161 -0.23555 -0.00016052 0.79189 0.61067
-0.023616 -0.49163 -0.23554 -5.2466e-005 0.79194 0.6106
-0.041356 -0.49173 -0.23541 0.0012803 0.79259 0.60975
-0.058433 -0.49189 -0.23514 -0.0080904 0.79226 0.61013
-0.073709 -0.49163 -0.23582 -0.041081 0.78098 0.6232
-0.089578 -0.48935 -0.23987 -0.071284 0.73683 0.67231
-0.10991 -0.48131 -0.24919 -0.051531 0.65148 0.75691
-0.13501 -0.46737 -0.26011 0.016598 0.52635 0.8501
-0.17178 -0.44677 -0.26813 0.044469 0.35122 0.93524
-0.19046 -0.43612 -0.27047 0.050462 0.23688 0.97023
-0.20672 -0.42767 -0.27147 0.034634 0.12982 0.99093
-0.22297 -0.42141 -0.27152 0.025525 0.059571 0.9979
-0.23806 -0.41826 -0.27148 0.008144 0.013764 0.99987
-0.25417 -0.41806 -0.27148 0.0055372 -0.0013303 0.99998
-0.27275 -0.41813 -0.27135 0.02376 -0.012186 0.99964
-0.29469 -0.41752 -0.27045 0.072244 -0.022558 0.99713
-0.32378 -0.41551 -0.26694 0.18887 -0.038324 0.98125
-0.35503 -0.41143 -0.25833 0.32409 -0.067968 0.94358
-0.14442 -0.46652 -0.26068 -0.082488 0.37097 0.92498
-0.16671 -0.45219 -0.26717 -0.045001 0.23374 0.97126
-0.18207 -0.44539 -0.26922 -0.055113 0.14247 0.98826
-0.20168 -0.43873 -0.27075 -0.030979 0.064158 0.99746
-0.21955 -0.43573 -0.27135 -0.017511 0.024731 0.99954
-0.23735 -0.43485 -0.27148 -0.0062987 0.0068599 0.99996
-0.25471 -0.43508 -0.27148 0.00010011 0.00013125 1
-0.27424 -0.43547 -0.27145 0.022308 -0.003906 0.99974
-0.29948 -0.43618 -0.2703 0.091142 -0.0088376 0.9958
-0.33144 -0.43406 -0.26575 0.21689 -0.017494 0.97604
-0.36145 -0.43133 -0.257 0.33404 -0.038452 0.94178
-0.15257 -0.47236 -0.26052 -0.18102 0.24809 0.95168
-0.17686 -0.46165 -0.26711 -0.12055 0.13553 0.98341
-0.19611 -0.45885 -0.26925 -0.088474 0.089981 0.99201
-0.21763 -0.45469 -0.27075 -0.043354 0.044015 0.99809
-0.23648 -0.45323 -0.27133 -0.020714 0.020703 0.99957
-0.25478 -0.45248 -0.27148 -0.0064847 0.0066257 0.99996
-0.27333 -0.45256 -0.27146 0.012594 0.0012786 0.99992
-0.2928 -0.45406 -0.27081 0.055501 -0.00026707 0.99846
-0.31771 -0.45344 -0.26841 0.14727 0.0032605 0.98909
-0.34591 -0.45327 -0.26224 0.26437 0.0055255 0.9644
-0.1659 -0.48776 -0.25991 -0.21714 0.21486 0.9522
-0.19279 -0.47884 -0.26692 -0.13163 0.12923 0.98284
-0.21329 -0.47646 -0.2692 -0.088047 0.090642 0.99198
-0.23483 -0.47255 -0.27073 -0.043769 0.047581 0.99791
-0.25402 -0.47161 -0.27132 -0.019104 0.028491 0.99941
-0.27392 -0.47191 -0.27143 0.014025 0.021698 0.99967
-0.29745 -0.47343 -0.27042 0.081636 0.031271 0.99617
-0.32512 -0.47477 -0.2667 0.1885 0.046945 0.98095
-0.35132 -0.4757 -0.26005 0.28131 0.056176 0.95797
-0.18377 -0.50369 -0.26049 -0.20857 0.20285 0.95674
-0.2105 -0.49658 -0.26684 -0.12594 0.13326 0.98305
-0.23161 -0.49525 -0.269 -0.078984 0.10606 0.99122
-0.25362 -0.49401 -0.27021 -0.031416 0.082594 0.99609
-0.27546 -0.49539 -0.27039 0.020746 0.08539 0.99613
-0.30102 -0.49668 -0.26865 0.10689 0.099313 0.9893
-0.32943 -0.49929 -0.26378 0.21982 0.12594 0.96738
-0.35189 -0.49968 -0.25744 0.2767 0.1272 0.9525
-0.20489 -0.52172 -0.26098 -0.17743 0.21272 0.96087
-0.23071 -0.51764 -0.26596 -0.10173 0.17166 0.97989
-0.25284 -0.52113 -0.26683 -0.042527 0.17806 0.9831
-0.27811 -0.52178 -0.26689 0.035805 0.18034 0.98295
-0.30603 -0.52294 -0.26429 0.14204 0.19469 0.97053
-0.33165 -0.52315 -0.25881 0.2297 0.19707 0.9531
-0.22559 -0.54178 -0.25956 -0.131 0.24411 0.96086
-0.25581 -0.54406 -0.26173 -0.034463 0.24267 0.9695
-0.28418 -0.5456 -0.26101 0.062783 0.25078 0.96601
-0.31133 -0.5444 -0.25814 0.15999 0.23957 0.95761
0.044756 0.82296 -0.25086 -0.17033 -0.69203 0.70149
0.018521 0.82349 -0.2556 -0.10087 -0.69649 0.71044
-0.0069188 0.82655 -0.25523 -0.036952 -0.70753 0.70572
-0.035412 0.82489 -0.25667 0.052814 -0.69846 0.7137
0.10724 0.79914 -0.2546 -0.26899 -0.62866 0.72968
0.082437 0.80018 -0.26185 -0.21186 -0.62867 0.74826
0.06063 0.80599 -0.26227 -0.19074 -0.64109 0.74338
-0.061481 0.82354 -0.25441 0.12737 -0.69491 0.70773
-0.080563 0.80417 -0.26804 0.16014 -0.64355 0.74847
-0.10095 0.80683 -0.26099 0.18782 -0.6539 0.7329
-0.11881 0.8079 -0.25527 0.19393 -0.65769 0.7279
0.14802 0.77977 -0.25399 -0.32791 -0.60162 0.72837
0.12724 0.78437 -0.25901 -0.29981 -0.59858 0.74284
0.039576 0.80518 -0.26887 -0.16072 -0.6326 0.75762
-0.13998 0.80517 -0.25139 0.22848 -0.65281 0.72225
-0.16152 0.78443 -0.2618 0.27087 -0.60027 0.75253
0.1906 0.75783 -0.25069 -0.41445 -0.56357 0.71458
0.16674 0.7637 -0.25803 -0.35545 -0.57015 0.74067
0.10432 0.77951 -0.27177 -0.25864 -0.57766 0.77422
-0.13981 0.78457 -0.26941 0.23373 -0.59809 0.76659
-0.18383 0.78652 -0.25092 0.31668 -0.61716 0.7203
-0.20381 0.76488 -0.25974 0.34721 -0.56489 0.74856
0.21168 0.73932 -0.25123 -0.47426 -0.51422 0.7146
0.14262 0.76064 -0.27135 -0.30889 -0.55157 0.77483
-0.18167 0.76349 -0.2707 0.30097 -0.55319 0.77679
-0.22778 0.76568 -0.24667 0.41184 -0.57683 0.70545
0.23139 0.72064 -0.25057 -0.51354 -0.47966 0.71148
0.18508 0.73846 -0.26759 -0.3905 -0.50312 0.77096
-0.2249 0.74258 -0.2658 0.38692 -0.512 0.76691
-0.24977 0.74461 -0.24961 0.46325 -0.52992 0.71034
0.25022 0.70138 -0.2488 -0.54605 -0.44947 0.70698
0.20749 0.71745 -0.2681 -0.44559 -0.45525 0.77084
-0.24649 0.72086 -0.26761 0.43678 -0.46558 0.76971
-0.26953 0.72478 -0.25046 0.50215 -0.49193 0.71123
0.22829 0.69806 -0.26663 -0.48796 -0.4246 0.76264
-0.26741 0.70038 -0.26718 0.4811 -0.42715 0.76556
-0.28776 0.70547 -0.24988 0.54164 -0.45202 0.70873
0.2723 0.65628 -0.25627 -0.59318 -0.3416 0.72901
0.24917 0.67746 -0.26375 -0.5321 -0.38602 0.75356
-0.29083 0.68204 -0.26124 0.53406 -0.39791 0.74595
0.29416 0.634 -0.24716 -0.65683 -0.28552 0.69789
-0.30599 0.65608 -0.2628 0.56458 -0.35083 0.74711
0.27303 0.63222 -0.26652 -0.5929 -0.28015 0.75497
-0.30982 0.63293 -0.27071 0.57264 -0.29111 0.76639
-0.32803 0.64002 -0.25243 0.63285 -0.31428 0.70763
0.29708 0.60911 -0.25321 -0.66525 -0.21868 0.71388
-0.33126 0.6122 -0.26004 0.64163 -0.2349 0.73016
0.29741 0.58917 -0.25874 -0.66547 -0.19758 0.7198
-0.33735 0.5892 -0.26103 0.64765 -0.20461 0.73395
0.31708 0.54697 -0.24944 -0.72078 -0.1302 0.68082
0.29613 0.56844 -0.26505 -0.65798 -0.16835 0.73397
-0.33537 0.56522 -0.26942 0.63238 -0.15726 0.75853
-0.35483 0.56844 -0.25029 0.69714 -0.1594 0.69899
-0.34661 0.54312 -0.26301 0.67014 -0.098795 0.73563
0.31335 0.51946 -0.25713 -0.70094 -0.043205 0.71191
-0.35409 0.52008 -0.25836 0.6951 -0.037821 0.71792
0.31681 0.49227 -0.25362 -0.71325 0.048131 0.69926
-0.35867 0.49482 -0.25376 0.71421 0.043007 0.69861
0.30607 0.47107 -0.26156 -0.67045 0.099099 0.73531
-0.3637 0.47168 -0.24576 0.73125 0.0994 0.67483
0.31322 0.44746 -0.25036 -0.69689 0.15051 0.70121
0.29241 0.45021 -0.27018 -0.61919 0.15149 0.77049
-0.32847 0.44828 -0.27474 0.62491 0.15066 0.76602
-0.34969 0.44853 -0.25543 0.68674 0.15067 0.71112
0.29402 0.42787 -0.26289 -0.63535 0.18621 0.74944
-0.33415 0.42668 -0.26497 0.64421 0.19021 0.74082
0.28767 0.40568 -0.26295 -0.62738 0.20921 0.75008
-0.33712 0.40843 -0.25712 0.65622 0.20045 0.72746
0.28726 0.37904 -0.25445 -0.62986 0.28176 0.7238
0.26845 0.38254 -0.27143 -0.57905 0.2653 0.77092
-0.31691 0.38864 -0.26909 0.61092 0.22739 0.75834
-0.33814 0.38663 -0.24955 0.66377 0.24229 0.70761
0.27241 0.35712 -0.25751 -0.59919 0.33309 0.72803
-0.31793 0.36415 -0.25957 0.61954 0.29533 0.72729
0.2658 0.33227 -0.25064 -0.59501 0.40011 0.69705
0.25032 0.34246 -0.26862 -0.55527 0.35615 0.75155
-0.31842 0.33873 -0.24696 0.63053 0.37052 0.68202
0.24646 0.31668 -0.25695 -0.55843 0.42982 0.70952
-0.29748 0.32001 -0.255 0.58406 0.39966 0.7065
0.23128 0.29407 -0.25449 -0.53855 0.47425 0.69645
-0.27295 0.29901 -0.26165 0.51596 0.44569 0.73153
0.20901 0.27412 -0.25676 -0.48613 0.50934 0.71011
-0.25249 0.27457 -0.25937 0.47013 0.49724 0.7292
-0.2744 0.27945 -0.24732 0.52827 0.49591 0.68921
0.18931 0.25838 -0.25804 -0.44987 0.503 0.73797
0.16698 0.25758 -0.27026 -0.39727 0.51232 0.76138
-0.22855 0.25799 -0.26217 0.41856 0.51022 0.75132
0.17166 0.24793 -0.26072 -0.42216 0.43918 0.79303
0.14785 0.24561 -0.2716 -0.35388 0.46714 0.81028
-0.18302 0.24071 -0.27212 0.31841 0.47869 0.81822
-0.20579 0.24692 -0.2662 0.3695 0.49649 0.78547
0.12927 0.23876 -0.27474 -0.3129 0.37999 0.87046
0.1092 0.23732 -0.28144 -0.27624 0.41959 0.86466
0.08533 0.23495 -0.28678 -0.20904 0.39128 0.89621
-0.11023 0.23036 -0.28777 0.16511 0.42022 0.89227
-0.13013 0.23393 -0.28527 0.2027 0.41951 0.88483
-0.15762 0.23629 -0.2787 0.2846 0.40637 0.86826
0.10824 0.24172 -0.28206 -0.27109 0.19575 0.94244
0.084475 0.24014 -0.28761 -0.1869 0.14551 0.97154
0.063453 0.23448 -0.29018 -0.1323 0.23659 0.96256
0.042025 0.2282 -0.29111 -0.091792 0.31397 0.94498
0.021149 0.22371 -0.29087 -0.057685 0.36225 0.93029
0.000834 0.22137 -0.29091 -0.02638 0.37875 0.92512
-0.019002 0.22025 -0.29077 -0.0054699 0.38463 0.92306
-0.039649 0.22038 -0.29071 0.019892 0.38411 0.92307
-0.062207 0.22218 -0.29052 0.058646 0.37507 0.92514
-0.088756 0.22561 -0.28934 0.13033 0.3446 0.92966
-0.11119 0.23053 -0.28708 0.15399 0.2656 0.9517
-0.13507 0.23654 -0.28446 0.20096 0.21048 0.95672
0.14823 0.26402 -0.27099 -0.20637 -0.47012 0.85813
0.13018 0.26474 -0.27479 -0.19288 -0.4351 0.87948
0.10569 0.25843 -0.2827 -0.16035 -0.36813 0.91584
0.09164 0.25034 -0.28657 -0.16362 -0.1228 0.97885
0.06735 0.24423 -0.2902 -0.095949 -0.068163 0.99305
0.045122 0.23666 -0.29165 -0.035903 0.04387 0.99839
0.027295 0.23047 -0.29166 -0.031419 0.11523 0.99284
0.0093185 0.2274 -0.29179 -0.016665 0.13516 0.99068
-0.0091562 0.22571 -0.29165 -0.0027283 0.14988 0.9887
-0.027288 0.22524 -0.29158 0.0026626 0.15438 0.98801
-0.046862 0.226 -0.29159 0.018849 0.15121 0.98832
-0.068102 0.22839 -0.29125 0.049875 0.1325 0.98993
-0.090723 0.23304 -0.29017 0.09231 0.07935 0.99256
-0.11214 0.23918 -0.28831 0.1118 0.0023405 0.99373
-0.13517 0.24859 -0.28453 0.14417 -0.11796 0.9825
-0.14529 0.25743 -0.28173 0.097119 -0.39288 0.91445
-0.1692 0.26257 -0.27543 0.17493 -0.40462 0.8976
0.191 0.25398 -0.26572 -0.28876 -0.53974 0.79076
0.16466 0.25749 -0.27146 -0.21748 -0.52693 0.82161
0.074964 0.25122 -0.28924 -0.063846 -0.31339 0.94748
0.049102 0.24533 -0.29138 0.0072679 -0.25439 0.96707
0.032213 0.24122 -0.29133 0.020974 -0.16527 0.98603
0.017514 0.23892 -0.29155 0.014714 -0.16963 0.9854
0.00097585 0.23708 -0.29165 0.0094215 -0.1531 0.98817
-0.015858 0.2365 -0.29161 0.002968 -0.14722 0.9891
-0.033283 0.2365 -0.29162 0.00079416 -0.14488 0.98945
-0.051719 0.23715 -0.29149 0.0089779 -0.14748 0.98902
-0.071271 0.23917 -0.29094 0.029744 -0.1665 0.98559
-0.090409 0.24283 -0.28945 0.046623 -0.20746 0.97713
-0.10918 0.24778 -0.28737 0.064774 -0.26618 0.96174
-0.12222 0.25382 -0.28445 0.043111 -0.34615 0.93719
-0.19082 0.26376 -0.27029 0.21486 -0.46905 0.85664
-0.21415 0.25489 -0.26968 0.26706 -0.52065 0.81093
0.2461 0.23568 -0.25175 -0.45356 -0.51164 0.72974
0.22093 0.24034 -0.26236 -0.37774 -0.5214 0.76515
0.13957 0.25342 -0.27969 -0.17266 -0.50787 0.84396
0.12057 0.25542 -0.28209 -0.14986 -0.4773 0.86587
0.029967 0.24395 -0.29158 0.042985 -0.38162 0.92332
0.010792 0.24251 -0.2909 0.033539 -0.38325 0.92303
-0.0055946 0.2421 -0.29069 0.011586 -0.38286 0.92373
-0.022438 0.24201 -0.29066 0.00078483 -0.38179 0.92425
-0.039931 0.24203 -0.29066 -0.0003675 -0.38023 0.92489
-0.057501 0.24226 -0.29056 0.0016262 -0.381 0.92457
-0.075352 0.24335 -0.2901 0.0084247 -0.39189 0.91997
-0.092782 0.24527 -0.28915 0.013907 -0.4147 0.90985
-0.10877 0.24726 -0.28788 0.010817 -0.44584 0.89505
-0.12605 0.25053 -0.28644 0.024665 -0.46173 0.88668
-0.16721 0.25456 -0.2812 0.12938 -0.5026 0.85478
-0.19207 0.25162 -0.27842 0.20254 -0.51332 0.83395
-0.23913 0.25601 -0.25893 0.34725 -0.51956 0.78069
0.26776 0.21595 -0.25044 -0.51462 -0.46303 0.72164
-0.23584 0.23901 -0.27268 0.32299 -0.51347 0.795
-0.25997 0.23959 -0.26044 0.39536 -0.51134 0.76303
0.28981 0.19352 -0.24727 -0.57031 -0.40146 0.71664
0.24252 0.21591 -0.26687 -0.43707 -0.46048 0.77261
-0.28206 0.21859 -0.262 0.45739 -0.463 0.75923
0.26673 0.19205 -0.26539 -0.50869 -0.38819 0.76847
-0.30276 0.19326 -0.26245 0.52065 -0.39172 0.7586
0.31254 0.14232 -0.25068 -0.63189 -0.23604 0.73824
0.2899 0.16777 -0.25981 -0.57218 -0.31664 0.75654
-0.3085 0.16814 -0.27091 0.54435 -0.31478 0.77756
-0.32537 0.17544 -0.25452 0.5867 -0.33419 0.73763
0.29069 0.14367 -0.26851 -0.57914 -0.24962 0.77607
-0.32974 0.1483 -0.26161 0.60382 -0.26014 0.75348
0.3136 0.11964 -0.2563 -0.64399 -0.18373 0.74264
-0.33818 0.12763 -0.26136 0.62005 -0.23357 0.74899
0.31422 0.10191 -0.26013 -0.65512 -0.17871 0.73408
-0.34901 0.10719 -0.25854 0.64207 -0.20089 0.73986
0.33493 0.063056 -0.24875 -0.72327 -0.1359 0.67706
0.31355 0.083496 -0.26505 -0.65608 -0.16668 0.73605
-0.35834 0.083888 -0.25553 0.66942 -0.13656 0.73022
-0.35535 0.057179 -0.26165 0.66607 -0.066609 0.74291
0.33491 0.041355 -0.25275 -0.72446 -0.092913 0.68302
-0.35289 0.035118 -0.26518 0.66593 -0.038067 0.74505
0.33523 0.019934 -0.25453 -0.72916 -0.052715 0.68231
-0.35743 0.019332 -0.26174 0.67795 -0.051383 0.73331
0.33588 0.00024586 -0.25476 -0.73761 -0.028659 0.67462
-0.36446 0.0088446 -0.2561 0.69356 -0.10449 0.71278
0.33617 -0.01828 -0.25497 -0.74236 -0.013984 0.66986
-0.35632 -0.0053691 -0.26709 0.66625 -0.12916 0.73446
-0.37606 -0.0062745 -0.24688 0.72758 -0.11588 0.67617
0.33558 -0.035705 -0.25587 -0.73983 -0.005568 0.67277
-0.36968 -0.022663 -0.25672 0.71099 -0.11415 0.69387
0.33175 -0.051078 -0.26004 -0.72679 0.00025924 0.68686
-0.36917 -0.042738 -0.26048 0.70971 -0.098372 0.6976
0.33451 -0.06773 -0.25705 -0.73677 0.0026664 0.67614
-0.37576 -0.06449 -0.25635 0.73541 -0.060072 0.67495
0.33606 -0.084824 -0.25534 -0.74322 -0.0020813 0.66904
-0.37944 -0.085806 -0.25328 0.75362 -0.020978 0.65697
0.33996 -0.10469 -0.25094 -0.75658 -0.0022636 0.6539
-0.38487 -0.10647 -0.24711 0.77844 0.0081867 0.62767
0.33739 -0.12334 -0.25387 -0.74688 -0.0043227 0.66494
-0.3767 -0.12556 -0.25617 0.74669 0.022703 0.66479
0.335 -0.1393 -0.25677 -0.73583 -0.017176 0.67694
-0.38477 -0.14312 -0.24559 0.78373 0.023782 0.62065
0.3301 -0.15665 -0.26248 -0.70973 -0.024392 0.70405
-0.37103 -0.16061 -0.26138 0.73649 0.018279 0.6762
0.3291 -0.17427 -0.26403 -0.69756 -0.037033 0.71557
-0.375 -0.17866 -0.25609 0.75196 0.021186 0.65887
0.33756 -0.18615 -0.25648 -0.69379 -0.07356 0.71641
-0.37667 -0.19647 -0.25394 0.75094 0.024773 0.65991
0.33006 -0.20447 -0.26505 -0.65847 -0.056865 0.75046
-0.37709 -0.2179 -0.25254 0.74183 0.06255 0.66766
0.32354 -0.22807 -0.27149 -0.61507 -0.0066364 0.78844
-0.38081 -0.23998 -0.2453 0.74873 0.11216 0.65332
0.31586 -0.25676 -0.27566 -0.55625 0.086705 0.82648
-0.34862 -0.26594 -0.27173 0.64215 0.1782 0.74558
-0.36823 -0.26356 -0.25348 0.70336 0.17025 0.69015
0.31028 -0.28347 -0.27549 -0.47348 0.15719 0.86667
-0.35209 -0.28689 -0.26292 0.65297 0.22417 0.72345
0.30383 -0.30567 -0.27348 -0.43446 0.19154 0.88009
0.30005 -0.30174 -0.27745 -0.51319 0.21236 0.83159
-0.35388 -0.30441 -0.25519 0.65897 0.23318 0.71511
0.29173 -0.32437 -0.27593 -0.46282 0.24651 0.85149
-0.33077 -0.32637 -0.26755 0.58042 0.29108 0.76051
-0.35113 -0.32303 -0.25156 0.63743 0.24394 0.73088
0.28156 -0.34761 -0.27329 -0.39066 0.28089 0.87664
0.27705 -0.3461 -0.27673 -0.47435 0.32668 0.81748
-0.32704 -0.34732 -0.26091 0.54099 0.32628 0.77516
0.26489 -0.36998 -0.27311 -0.37929 0.36791 0.84899
-0.30173 -0.37 -0.26695 0.45987 0.39568 0.79496
0.24349 -0.39732 -0.26823 -0.30359 0.45251 0.83849
0.22772 -0.40423 -0.27091 -0.33056 0.52712 0.78287
-0.25155 -0.39985 -0.27486 0.34482 0.51635 0.78389
-0.27394 -0.3904 -0.27012 0.38015 0.45963 0.80264
0.22135 -0.42082 -0.26133 -0.25171 0.53493 0.80653
0.20549 -0.42527 -0.26403 -0.27272 0.58275 0.76552
0.18757 -0.42807 -0.26854 -0.26593 0.61264 0.74428
-0.20765 -0.42248 -0.27558 0.25225 0.57227 0.78031
-0.22931 -0.41505 -0.27337 0.27661 0.5204 0.80788
-0.25224 -0.40698 -0.26955 0.31512 0.45993 0.83016
0.18382 -0.44662 -0.25379 -0.22258 0.63707 0.73797
0.16773 -0.44774 -0.25789 -0.23054 0.651 0.72322
0.14879 -0.44712 -0.26446 -0.21656 0.65129 0.72728
0.12673 -0.44687 -0.27075 -0.17973 0.65104 0.73746
-0.14789 -0.44547 -0.2739 0.17027 0.60104 0.78087
-0.16574 -0.43964 -0.2741 0.17524 0.58565 0.7914
-0.18703 -0.43281 -0.27424 0.20429 0.55492 0.80643
-0.2084 -0.42844 -0.27072 0.23366 0.50614 0.8302
0.12971 -0.46524 -0.25297 -0.18303 0.68853 0.70173
0.10766 -0.46716 -0.25626 -0.13793 0.69601 0.70466
0.085757 -0.47062 -0.2564 -0.091765 0.71198 0.69618
0.062251 -0.47233 -0.25666 -0.04069 0.72251 0.69016
0.04291 -0.47128 -0.25858 -0.0172 0.72335 0.69027
0.024943 -0.47097 -0.25912 -0.0067703 0.72481 0.68892
0.0074356 -0.47128 -0.25889 -0.0033965 0.72753 0.68607
-0.010274 -0.47142 -0.25876 -9.3982e-005 0.72854 0.68501
-0.02778 -0.4714 -0.25878 4.5102e-005 0.72849 0.68506
-0.045508 -0.47152 -0.25865 0.00062925 0.72902 0.68449
-0.063311 -0.47167 -0.25848 -0.0010426 0.72751 0.68609
-0.081881 -0.47069 -0.25948 0.0024964 0.7124 0.70177
-0.10283 -0.46742 -0.26213 0.031012 0.67737 0.73499
-0.1287 -0.45923 -0.2668 0.10325 0.61495 0.78178
-0.15299 -0.4522 -0.26737 0.13709 0.54497 0.82717
0.019864 0.79794 -0.27756 -0.10835 -0.60757 0.78684
-0.0014688 0.8024 -0.27649 -0.051522 -0.62216 0.78119
-0.027055 0.80319 -0.27615 0.025322 -0.62647 0.77903
0.08387 0.77895 -0.27778 -0.22007 -0.57988 0.78441
0.061364 0.78152 -0.28178 -0.17438 -0.58335 0.79328
0.039184 0.78247 -0.28543 -0.15098 -0.56695 0.8098
-0.055851 0.80128 -0.27475 0.10692 -0.62932 0.76976
-0.080125 0.78095 -0.28676 0.15308 -0.57856 0.80114
-0.099802 0.78311 -0.28057 0.18286 -0.59654 0.78148
0.12194 0.76155 -0.27768 -0.28525 -0.54847 0.78601
0.099194 0.75776 -0.28818 -0.24927 -0.53726 0.80574
0.010602 0.77759 -0.29336 -0.086028 -0.54664 0.83294
-0.01503 0.77801 -0.29429 -0.01262 -0.54741 0.83677
-0.038178 0.78046 -0.29255 0.048463 -0.55799 0.82843
-0.060481 0.77821 -0.29188 0.10597 -0.55799 0.82306
-0.11887 0.78527 -0.27384 0.20141 -0.60577 0.76973
-0.13975 0.76305 -0.28473 0.23995 -0.55567 0.79603
0.16218 0.73989 -0.27677 -0.34429 -0.50546 0.79118
0.1397 0.73786 -0.28703 -0.30878 -0.5061 0.80531
0.078183 0.76233 -0.29166 -0.2067 -0.54557 0.81218
-0.11857 0.7625 -0.29162 0.20582 -0.55243 0.80775
-0.16053 0.76266 -0.27775 0.27066 -0.55393 0.78734
-0.18164 0.74127 -0.28483 0.30821 -0.50878 0.80383
0.18454 0.71692 -0.28023 -0.39286 -0.45182 0.80095
0.11959 0.74327 -0.29151 -0.27795 -0.51929 0.80814
-0.16084 0.74177 -0.29279 0.27545 -0.51419 0.81224
-0.20274 0.74107 -0.27618 0.34342 -0.50356 0.79278
0.20581 0.6963 -0.28037 -0.43492 -0.41447 0.79941
0.16368 0.71859 -0.28929 -0.35364 -0.46531 0.81143
-0.20248 0.72009 -0.28964 0.34412 -0.46765 0.81418
-0.22391 0.71947 -0.2798 0.38461 -0.45962 0.80051
0.22682 0.67636 -0.27833 -0.47577 -0.38361 0.79151
0.18537 0.69654 -0.29098 -0.40062 -0.41813 0.81528
-0.22399 0.69803 -0.2916 0.38992 -0.42178 0.81858
-0.24487 0.69848 -0.28077 0.4256 -0.42032 0.80137
0.24958 0.65528 -0.27365 -0.53 -0.34182 0.77606
0.20572 0.67607 -0.29057 -0.43477 -0.38389 0.81462
-0.24456 0.67709 -0.29174 0.42685 -0.38457 0.81848
-0.26627 0.67882 -0.27859 0.4713 -0.38719 0.79244
0.22755 0.65464 -0.28826 -0.47874 -0.33882 0.80995
-0.26414 0.65546 -0.29077 0.46413 -0.33944 0.81815
-0.28466 0.66022 -0.27612 0.51358 -0.35326 0.78195
0.27433 0.60916 -0.27233 -0.60148 -0.22833 0.76556
0.25028 0.63205 -0.28239 -0.53399 -0.28563 0.79578
-0.28533 0.63531 -0.2858 0.50713 -0.30217 0.80717
0.25106 0.60959 -0.28977 -0.53624 -0.23464 0.8108
-0.2918 0.60839 -0.2913 0.52739 -0.23651 0.81604
-0.30831 0.61351 -0.27769 0.57264 -0.24262 0.78308
0.27412 0.58836 -0.27836 -0.59907 -0.19542 0.77648
-0.31225 0.59014 -0.28145 0.58584 -0.1908 0.78765
0.29361 0.54511 -0.27183 -0.64019 -0.11413 0.75969
0.27203 0.56704 -0.28499 -0.58104 -0.15739 0.79851
-0.31708 0.56866 -0.28233 0.58946 -0.16061 0.79167
0.26759 0.54264 -0.2919 -0.54967 -0.086609 0.83088
-0.30282 0.54421 -0.29679 0.55085 -0.098526 0.82877
-0.32338 0.5427 -0.28192 0.60002 -0.097235 0.79405
0.28563 0.51988 -0.28067 -0.60055 -0.032677 0.79892
0.25913 0.51876 -0.2985 -0.51343 -0.018264 0.85794
-0.30812 0.51912 -0.29509 0.56227 -0.03252 0.82632
-0.33032 0.51936 -0.2789 0.61671 -0.036857 0.78632
0.29461 0.4949 -0.2736 -0.62738 0.041012 0.77763
0.27149 0.49574 -0.29054 -0.55428 0.037428 0.83149
-0.31136 0.49511 -0.29272 0.56885 0.03088 0.82186
-0.33501 0.49476 -0.27511 0.63563 0.037011 0.77111
0.28226 0.47205 -0.28063 -0.58907 0.097548 0.80218
0.26089 0.47149 -0.29562 -0.52756 0.093083 0.8444
-0.31752 0.47191 -0.28692 0.59035 0.090338 0.80208
-0.3415 0.47082 -0.26699 0.66373 0.10395 0.74071
0.27299 0.44699 -0.28327 -0.56934 0.15237 0.80786
-0.30587 0.44865 -0.29151 0.55579 0.1477 0.81809
0.26757 0.42779 -0.28369 -0.57447 0.16178 0.80238
-0.31185 0.42747 -0.28243 0.58588 0.18314 0.78943
0.26586 0.40529 -0.27945 -0.57458 0.20877 0.79137
0.24655 0.41038 -0.29461 -0.53207 0.19563 0.82379
-0.29349 0.40983 -0.29212 0.55311 0.19187 0.81071
-0.31512 0.40911 -0.27536 0.60362 0.1961 0.77278
0.24816 0.38683 -0.28654 -0.54004 0.24874 0.80404
-0.29459 0.3893 -0.28582 0.55866 0.22565 0.79811
0.25001 0.36382 -0.27713 -0.54955 0.30183 0.77903
0.23053 0.36735 -0.29218 -0.51198 0.28338 0.81091
-0.29546 0.36661 -0.27777 0.56499 0.27915 0.77644
0.22847 0.34243 -0.28314 -0.51728 0.34286 0.78414
-0.27331 0.34375 -0.28456 0.51239 0.33525 0.79061
-0.29642 0.34247 -0.26757 0.57265 0.34537 0.7435
0.22755 0.31555 -0.27084 -0.53012 0.41632 0.73868
0.20727 0.3186 -0.28605 -0.47588 0.39982 0.78338
-0.25068 0.3207 -0.2876 0.45831 0.39319 0.79709
-0.27353 0.32034 -0.27297 0.51515 0.39891 0.75861
0.20794 0.29335 -0.27064 -0.47984 0.47782 0.73582
0.18551 0.29526 -0.28544 -0.42266 0.46607 0.77726
-0.22888 0.29942 -0.28832 0.41108 0.44094 0.79786
-0.25103 0.29785 -0.2748 0.46121 0.44747 0.7662
0.18672 0.27423 -0.27051 -0.43525 0.50948 0.74228
0.16275 0.27542 -0.28457 -0.36909 0.50378 0.78101
-0.20749 0.27914 -0.28696 0.36223 0.48416 0.79648
-0.23096 0.27799 -0.27419 0.42055 0.48811 0.76478
0.14328 0.25912 -0.28214 -0.33567 0.51131 0.79113
0.11906 0.25827 -0.29169 -0.2752 0.50958 0.81523
-0.16225 0.25629 -0.2903 0.27047 0.5104 0.81629
-0.18546 0.25819 -0.28267 0.31614 0.51492 0.79681
-0.20954 0.26146 -0.2745 0.37282 0.51621 0.77106
0.12506 0.24471 -0.28004 -0.30048 0.49457 0.81554
0.10069 0.24482 -0.288 -0.2465 0.49214 0.83489
0.078083 0.24205 -0.29286 -0.19536 0.48969 0.84973
0.054174 0.24174 -0.29763 -0.1481 0.50025 0.85312
-0.097796 0.24058 -0.2966 0.16539 0.51 0.84413
-0.11591 0.24146 -0.29288 0.18206 0.49736 0.84822
-0.14085 0.24333 -0.28833 0.22612 0.50467 0.83318
-0.16635 0.24294 -0.27978 0.29065 0.51136 0.80872
0.06025 0.23196 -0.28998 -0.1519 0.43875 0.88568
0.037232 0.23033 -0.29306 -0.10981 0.46733 0.87724
0.014935 0.2287 -0.29462 -0.065196 0.48291 0.87324
-0.0077885 0.22688 -0.2945 -0.021795 0.48922 0.87189
-0.028776 0.22649 -0.29456 0.0057227 0.48951 0.87198
-0.050982 0.22697 -0.29419 0.045705 0.48847 0.87138
-0.076482 0.22953 -0.29342 0.11625 0.48264 0.86807
-0.098079 0.23069 -0.28993 0.16855 0.46975 0.86656
0.10323 0.24881 -0.28808 -0.10296 -0.46915 0.8771
0.081655 0.24847 -0.29012 -0.050564 -0.44371 0.89474
0.19832 0.23369 -0.27688 -0.30551 -0.50638 0.80637
0.17323 0.23942 -0.28105 -0.22888 -0.52099 0.8223
0.14634 0.23812 -0.2879 -0.15932 -0.51431 0.84267
0.12079 0.23805 -0.29195 -0.11984 -0.49389 0.86123
0.054509 0.24461 -0.29211 0.015065 -0.42685 0.9042
0.035474 0.23498 -0.29667 0.042675 -0.469 0.88216
0.0182 0.23565 -0.29513 0.042766 -0.47559 0.87863
0.0026785 0.23592 -0.29457 0.018235 -0.48585 0.87385
-0.013752 0.23591 -0.29434 0.0046157 -0.48848 0.87256
-0.030851 0.23595 -0.29433 -0.00023843 -0.48882 0.87239
-0.048296 0.23596 -0.29432 -0.00017487 -0.48837 0.87264
-0.065607 0.23596 -0.29432 -0.00073265 -0.48816 0.87275
-0.082675 0.23607 -0.2943 -0.0040792 -0.49023 0.87158
-0.099922 0.23667 -0.29419 -0.0080608 -0.49936 0.86636
-0.11933 0.23798 -0.2938 -0.00014732 -0.50616 0.86244
-0.14257 0.24828 -0.28661 0.049341 -0.50226 0.86331
-0.16287 0.23633 -0.29272 0.10738 -0.50782 0.85475
-0.18592 0.23589 -0.28867 0.1743 -0.50495 0.84537
0.21878 0.21492 -0.27925 -0.37003 -0.455 0.80997
0.09601 0.23418 -0.29716 -0.071394 -0.4752 0.87697
0.071877 0.23401 -0.29825 -0.010325 -0.46798 0.88368
0.052428 0.23105 -0.29966 0.025667 -0.46794 0.88339
-0.13945 0.23331 -0.29673 0.038323 -0.50766 0.8607
-0.2108 0.23638 -0.28227 0.24252 -0.50787 0.82659
-0.23285 0.21734 -0.28655 0.3107 -0.47396 0.82391
0.24225 0.19202 -0.27951 -0.43839 -0.39224 0.80868
0.19108 0.21242 -0.29157 -0.28252 -0.45168 0.84627
0.16685 0.22064 -0.29424 -0.20853 -0.47595 0.85439
-0.20664 0.21752 -0.29554 0.2297 -0.47786 0.84787
-0.25786 0.21917 -0.2746 0.39075 -0.4743 0.78889
0.2663 0.16808 -0.27583 -0.50933 -0.32289 0.7977
0.21795 0.19227 -0.2915 -0.3656 -0.39828 0.84125
-0.25676 0.19503 -0.28905 0.38858 -0.40997 0.82518
-0.27988 0.19724 -0.27537 0.46304 -0.40912 0.78627
0.24277 0.16826 -0.29016 -0.44463 -0.32563 0.83443
-0.28391 0.17092 -0.28483 0.4784 -0.33393 0.81217
0.29126 0.12196 -0.27358 -0.59056 -0.2076 0.77983
0.26693 0.14486 -0.28401 -0.51624 -0.26382 0.8148
-0.29074 0.14369 -0.29127 0.50381 -0.2635 0.82264
-0.30768 0.14835 -0.27793 0.54911 -0.26842 0.79147
0.26704 0.1233 -0.29074 -0.5171 -0.22071 0.82698
-0.31149 0.1256 -0.28257 0.55696 -0.22642 0.79908
0.29091 0.10289 -0.27896 -0.58949 -0.18891 0.78538
-0.30619 0.1008 -0.29254 0.53461 -0.18556 0.82447
-0.32692 0.1062 -0.2764 0.59136 -0.20111 0.78093
0.31233 0.063395 -0.27038 -0.64896 -0.13951 0.74793
0.28926 0.08369 -0.28465 -0.57708 -0.16982 0.79883
-0.31384 0.080482 -0.29179 0.55456 -0.1379 0.82064
-0.33862 0.081376 -0.27311 0.62379 -0.13417 0.76999
0.28775 0.063136 -0.28967 -0.56482 -0.13852 0.8135
-0.32757 0.057838 -0.2846 0.59703 -0.076666 0.79855
0.31216 0.042441 -0.27386 -0.64863 -0.10459 0.75389
0.28788 0.043382 -0.29284 -0.56537 -0.11509 0.81677
-0.33403 0.038078 -0.28115 0.61927 -0.047682 0.78373
0.31287 0.021784 -0.27579 -0.6545 -0.071858 0.75264
-0.33631 0.019865 -0.28015 0.62602 -0.050004 0.7782
0.31372 0.0019499 -0.27675 -0.66175 -0.046019 0.74831
-0.34012 0.0068848 -0.27824 0.62471 -0.10343 0.77397
0.31385 -0.017816 -0.2773 -0.66442 -0.018825 0.74713
-0.33687 -0.0084398 -0.28294 0.60465 -0.13838 0.78438
0.31249 -0.035812 -0.27877 -0.65975 -0.0060006 0.75146
-0.32869 -0.025139 -0.29284 0.57608 -0.13302 0.8065
-0.35142 -0.025519 -0.27434 0.65123 -0.1242 0.74864
0.31142 -0.054443 -0.27971 -0.65514 0.0015221 0.75551
-0.34336 -0.04511 -0.28445 0.62148 -0.096149 0.77751
0.30984 -0.073034 -0.28107 -0.6479 0.00059649 0.76173
-0.352 -0.064585 -0.27916 0.64918 -0.062256 0.75808
0.31481 -0.09259 -0.27672 -0.66829 -0.00035671 0.7439
-0.35635 -0.085252 -0.27663 0.66628 -0.027957 0.74518
0.31942 -0.10889 -0.2725 -0.68551 -0.0014712 0.72806
-0.36327 -0.10584 -0.27058 0.69598 -0.00053223 0.71806
0.31429 -0.12368 -0.27718 -0.66662 -0.0030431 0.74539
-0.35126 -0.12491 -0.28133 0.65049 0.010576 0.75944
0.31216 -0.13946 -0.27912 -0.65291 -0.0071313 0.7574
-0.36182 -0.14209 -0.27128 0.69756 0.0145 0.71638
0.3072 -0.15403 -0.2834 -0.6336 -0.0098767 0.7736
-0.34786 -0.15928 -0.2838 0.64275 0.0080851 0.76604
0.31009 -0.16928 -0.28125 -0.64478 -0.022457 0.76404
-0.35212 -0.17862 -0.27989 0.66655 0.022579 0.74512
0.31534 -0.18793 -0.27743 -0.65781 -0.037788 0.75223
-0.35508 -0.19893 -0.27629 0.67721 0.049879 0.7341
0.31172 -0.20994 -0.28133 -0.64421 -0.011 0.76477
-0.35561 -0.22055 -0.27361 0.67472 0.08883 0.73271
0.30457 -0.23696 -0.28627 -0.61122 0.065609 0.78873
-0.33394 -0.24247 -0.28878 0.60936 0.14225 0.78003
-0.3567 -0.24355 -0.26863 0.673 0.13438 0.72733
0.30192 -0.26304 -0.28518 -0.5825 0.14569 0.79967
-0.33109 -0.26422 -0.28619 0.59676 0.18865 0.77993
0.30152 -0.28232 -0.28071 -0.55089 0.18321 0.81422
0.28547 -0.28452 -0.29236 -0.55611 0.20372 0.80575
-0.32986 -0.28589 -0.28091 0.59149 0.22495 0.7743
0.2885 -0.30568 -0.28374 -0.54022 0.2367 0.80755
-0.31045 -0.30642 -0.28954 0.54709 0.26594 0.79371
-0.33152 -0.30548 -0.27354 0.59636 0.2522 0.76207
0.27565 -0.32884 -0.2846 -0.50901 0.30313 0.80561
-0.3093 -0.32836 -0.28163 0.53255 0.31822 0.7843
0.25763 -0.3574 -0.28337 -0.45371 0.39129 0.80065
-0.28671 -0.35314 -0.28524 0.46631 0.39924 0.7894
-0.30807 -0.35038 -0.27256 0.51084 0.37462 0.77376
0.24843 -0.38209 -0.27455 -0.39104 0.45776 0.79846
0.23265 -0.38279 -0.28276 -0.3852 0.48865 0.78284
-0.2633 -0.38003 -0.2822 0.39157 0.48693 0.78075
-0.28596 -0.37218 -0.27474 0.4454 0.44487 0.77699
0.20906 -0.40629 -0.27674 -0.3161 0.56097 0.76511
0.1885 -0.40778 -0.28446 -0.28222 0.57603 0.76717
-0.21578 -0.4068 -0.28457 0.27789 0.56319 0.7782
-0.23644 -0.39615 -0.28375 0.3298 0.53497 0.77784
0.16714 -0.42857 -0.2747 -0.23615 0.62163 0.74686
0.14699 -0.42773 -0.28169 -0.21282 0.61648 0.75806
0.12487 -0.4269 -0.28789 -0.17186 0.61255 0.77152
-0.15327 -0.42922 -0.28517 0.18577 0.59996 0.77816
-0.16991 -0.42329 -0.28571 0.19074 0.59643 0.77967
-0.19088 -0.41775 -0.28434 0.2309 0.5851 0.77739
0.10377 -0.44615 -0.2763 -0.13997 0.64837 0.74835
0.080697 -0.45505 -0.27227 -0.087399 0.67567 0.732
0.06025 -0.45182 -0.27688 -0.045772 0.67167 0.73943
0.041634 -0.45083 -0.2785 -0.025816 0.67639 0.73609
0.023234 -0.45155 -0.27822 -0.013335 0.68308 0.73022
0.0049069 -0.45216 -0.27794 -0.005719 0.68615 0.72744
-0.013294 -0.4521 -0.27799 0.00029402 0.68633 0.72729
-0.03083 -0.45198 -0.27811 0.00015581 0.68598 0.72762
-0.048697 -0.45204 -0.27805 0.0026185 0.68544 0.72812
-0.067853 -0.4517 -0.2782 0.016423 0.67982 0.7332
-0.088576 -0.44965 -0.27917 0.045802 0.6638 0.7465
-0.11082 -0.44679 -0.27967 0.096404 0.63837 0.76367
-0.13301 -0.4398 -0.28149 0.15632 0.61302 0.77445
0.060615 0.75643 -0.29888 -0.1617 -0.52852 0.83338
0.042672 0.76158 -0.29902 -0.13307 -0.53356 0.83523
0.021653 0.76102 -0.30197 -0.10173 -0.52137 0.84725
-0.0066409 0.75521 -0.30788 -0.029191 -0.49945 0.86585
-0.029914 0.75562 -0.30763 0.019595 -0.49587 0.86818
-0.05054 0.75908 -0.30462 0.070691 -0.50522 0.86009
-0.072187 0.75729 -0.30324 0.11823 -0.5147 0.84918
0.10221 0.73873 -0.29937 -0.24672 -0.51295 0.8222
0.078998 0.7392 -0.30556 -0.19917 -0.50227 0.84146
-0.094612 0.75788 -0.29905 0.15231 -0.5357 0.83056
-0.11835 0.73977 -0.3057 0.19846 -0.50786 0.83827
0.14511 0.71688 -0.2977 -0.32401 -0.47155 0.82016
0.12314 0.71947 -0.30421 -0.28515 -0.47509 0.83245
0.052564 0.73766 -0.31189 -0.14119 -0.48699 0.86192
0.031093 0.73875 -0.31413 -0.10302 -0.47847 0.87204
0.011922 0.74162 -0.31474 -0.071237 -0.47946 0.87467
-0.052222 0.73832 -0.31632 0.062564 -0.46861 0.88119
-0.07642 0.73722 -0.31459 0.10121 -0.48018 0.87131
-0.098105 0.73475 -0.31319 0.14777 -0.48727 0.86065
-0.13946 0.74093 -0.29889 0.23927 -0.51301 0.82436
-0.16004 0.71938 -0.30576 0.27737 -0.47265 0.83646
0.16574 0.69659 -0.29994 -0.37059 -0.42452 0.8261
0.10083 0.7221 -0.31033 -0.24298 -0.47824 0.84395
-0.13808 0.719 -0.31327 0.23473 -0.46901 0.85143
-0.18188 0.71964 -0.29744 0.31783 -0.46937 0.82382
0.18565 0.67584 -0.30078 -0.40536 -0.3845 0.82936
0.1446 0.69753 -0.30883 -0.32757 -0.43164 0.84046
-0.18087 0.6989 -0.30988 0.31615 -0.43355 0.84385
-0.20263 0.69846 -0.3008 0.3545 -0.42855 0.83107
0.2059 0.65455 -0.29979 -0.43714 -0.3415 0.83203
0.16509 0.67538 -0.31073 -0.37053 -0.38037 0.84736
-0.20256 0.6769 -0.31151 0.35857 -0.38439 0.85069
-0.2232 0.67683 -0.30222 0.39088 -0.3858 0.83568
0.22741 0.63202 -0.29659 -0.47769 -0.2876 0.83012
0.18502 0.65349 -0.31097 -0.40037 -0.33081 0.85455
-0.22107 0.65394 -0.31321 0.38867 -0.33249 0.85929
-0.2421 0.65427 -0.30274 0.42414 -0.33474 0.84146
0.20591 0.63138 -0.30881 -0.43589 -0.28097 0.85502
-0.23617 0.63065 -0.3143 0.41129 -0.27702 0.86839
-0.25919 0.63285 -0.30173 0.45293 -0.28975 0.84315
0.24955 0.5865 -0.29596 -0.52555 -0.17943 0.83163
0.22735 0.60854 -0.30377 -0.47707 -0.22669 0.84913
0.20451 0.60747 -0.31626 -0.423 -0.21526 0.88019
-0.2473 0.6095 -0.31523 0.42277 -0.2346 0.87534
-0.26987 0.61156 -0.30283 0.46681 -0.24638 0.84934
0.22642 0.58555 -0.30988 -0.46875 -0.17008 0.8668
-0.25889 0.5871 -0.31486 0.44114 -0.18885 0.87734
-0.28359 0.58742 -0.30104 0.50313 -0.18923 0.84324
0.24721 0.56376 -0.3016 -0.50751 -0.12582 0.85241
0.22459 0.56276 -0.31443 -0.45748 -0.11426 0.88185
-0.26927 0.5659 -0.31382 0.46497 -0.14326 0.87366
-0.29536 0.56779 -0.29796 0.5361 -0.15102 0.83053
0.2435 0.54076 -0.30608 -0.48979 -0.066875 0.86927
0.22227 0.5403 -0.31796 -0.45281 -0.059507 0.88962
-0.2801 0.54372 -0.31041 0.49228 -0.091254 0.86564
0.23782 0.51884 -0.3103 -0.47813 -0.017698 0.87811
-0.28563 0.5202 -0.30909 0.50567 -0.036345 0.86196
0.24872 0.49587 -0.30403 -0.49249 0.033029 0.86969
0.22936 0.49734 -0.31506 -0.46356 0.029647 0.88557
-0.28899 0.49543 -0.30731 0.51652 0.032016 0.85568
0.2399 0.47427 -0.30742 -0.48523 0.070129 0.87157
0.22136 0.47939 -0.31789 -0.45426 0.051742 0.88936
-0.29197 0.47129 -0.30359 0.52457 0.090752 0.84652
0.2509 0.45067 -0.29866 -0.52141 0.12304 0.84439
0.22605 0.45857 -0.31428 -0.47681 0.078447 0.8755
-0.26724 0.45314 -0.31586 0.46437 0.11413 0.87826
-0.28703 0.4505 -0.30371 0.51817 0.12327 0.84635
0.24135 0.43431 -0.30187 -0.51883 0.13577 0.84403
0.21921 0.43618 -0.31551 -0.46817 0.12598 0.87461
-0.26853 0.43156 -0.312 0.47904 0.15264 0.86442
-0.29083 0.43001 -0.29777 0.53912 0.16108 0.82668
0.22515 0.41332 -0.3078 -0.49101 0.17921 0.85252
-0.27048 0.41126 -0.30658 0.49494 0.18324 0.84939
0.22804 0.389 -0.29989 -0.50105 0.23729 0.83225
0.20949 0.39185 -0.31186 -0.45823 0.22628 0.85955
-0.24842 0.39189 -0.31482 0.43996 0.20556 0.87417
-0.27221 0.39021 -0.30027 0.50878 0.22077 0.83211
0.20616 0.36687 -0.30572 -0.45771 0.2751 0.84547
-0.25026 0.36811 -0.30711 0.45615 0.26874 0.84836
-0.27303 0.36781 -0.29371 0.51131 0.2693 0.81611
0.20519 0.34253 -0.29788 -0.4678 0.32683 0.82119
0.18241 0.34707 -0.31153 -0.40145 0.31074 0.86156
-0.22754 0.34566 -0.31078 0.39909 0.32243 0.85835
-0.25036 0.34392 -0.2979 0.45735 0.33679 0.82304
0.18342 0.32059 -0.29981 -0.40969 0.38919 0.82504
0.15925 0.32496 -0.31274 -0.33519 0.36783 0.86738
-0.20454 0.32314 -0.31136 0.34027 0.38016 0.86005
-0.22836 0.32172 -0.29977 0.4084 0.39022 0.82519
0.16154 0.29849 -0.29884 -0.35344 0.44647 0.82203
0.13863 0.30604 -0.3115 -0.28677 0.40937 0.86613
0.11677 0.29768 -0.31427 -0.24247 0.4274 0.87094
-0.1576 0.29769 -0.31472 0.23492 0.41927 0.87694
-0.17941 0.30337 -0.31106 0.27941 0.41892 0.86396
-0.20549 0.30145 -0.30015 0.35338 0.43246 0.82952
0.13794 0.28021 -0.2975 -0.30773 0.47934 0.82191
0.11385 0.27631 -0.30356 -0.24878 0.47287 0.84528
0.096288 0.28385 -0.31238 -0.21317 0.44975 0.86734
0.075611 0.2783 -0.31452 -0.18491 0.45853 0.86923
-0.11854 0.2761 -0.313 0.18079 0.46355 0.86743
-0.13813 0.28228 -0.3119 0.20826 0.45324 0.86672
-0.16482 0.27669 -0.30132 0.2628 0.47635 0.83906
-0.18606 0.28128 -0.29701 0.30562 0.47505 0.82518
0.092717 0.26081 -0.30019 -0.2122 0.49665 0.84161
0.072429 0.25669 -0.30228 -0.18264 0.49387 0.85014
0.05481 0.25995 -0.30791 -0.1566 0.49601 0.85408
0.036826 0.26432 -0.31389 -0.12003 0.48615 0.86559
0.01486 0.26047 -0.31366 -0.060494 0.49085 0.86914
-0.0064837 0.25983 -0.31419 -0.022213 0.48823 0.87243
-0.027268 0.2598 -0.31437 0.0069734 0.4869 0.87343
-0.049096 0.26089 -0.31437 0.044355 0.48231 0.87487
-0.073839 0.26221 -0.31317 0.10662 0.48345 0.86886
-0.10045 0.25996 -0.3073 0.16048 0.49201 0.85567
-0.12372 0.25744 -0.30103 0.18908 0.50307 0.84331
-0.14333 0.26314 -0.29977 0.22083 0.49247 0.84184
0.03084 0.24374 -0.30171 -0.10113 0.51284 0.85251
0.0055684 0.24128 -0.30268 -0.048134 0.51305 0.85701
-0.016834 0.2407 -0.30299 -0.010528 0.51248 0.85864
-0.038034 0.241 -0.30308 0.021929 0.5106 0.85954
-0.060382 0.2419 -0.30257 0.07323 0.50917 0.85754
-0.081205 0.24622 -0.3025 0.12724 0.50259 0.85511
0.149 0.21361 -0.30167 -0.16195 -0.45565 0.8753
0.12874 0.21785 -0.30259 -0.11829 -0.46823 0.87565
0.10741 0.21671 -0.30536 -0.080446 -0.46212 0.88316
0.084297 0.21549 -0.30747 -0.034644 -0.45341 0.89063
0.063172 0.21433 -0.3084 0.0029518 -0.45207 0.89198
0.043147 0.21557 -0.30733 0.024895 -0.46096 0.88707
0.026365 0.219 -0.30504 0.027534 -0.47841 0.87771
0.010389 0.22023 -0.30393 0.016914 -0.49141 0.87076
-0.0059677 0.22048 -0.30355 0.006537 -0.49735 0.86752
-0.022757 0.22059 -0.30348 8.028e-005 -0.49939 0.86638
-0.040146 0.22058 -0.30349 -2.6453e-005 -0.4993 0.86643
-0.057523 0.22059 -0.30348 -1.7273e-005 -0.49928 0.86644
-0.074771 0.22054 -0.30351 -0.0016314 -0.49885 0.86669
-0.09166 0.22021 -0.30377 -0.0080215 -0.49645 0.86803
-0.10978 0.21971 -0.30434 -0.0050253 -0.48982 0.87181
-0.12923 0.21606 -0.30625 0.017079 -0.47439 0.88015
-0.15443 0.21447 -0.30581 0.081485 -0.46562 0.88123
0.19499 0.18775 -0.30232 -0.29225 -0.38016 0.87753
0.1703 0.19318 -0.30684 -0.22028 -0.39654 0.8912
-0.17946 0.21597 -0.30181 0.14815 -0.47332 0.86834
-0.20324 0.19383 -0.30799 0.21841 -0.41034 0.88539
