0.14727 0.14155 0.45626 -0.67161 -0.52188 -0.52591
-0.21239 0.051163 0.26732 -0.20109 -0.95458 -0.21988
0.21473 -0.096273 0.34399 -0.18817 0.97253 0.13704
0.17067 -0.099728 0.36356 0.20525 0.90987 0.36058
0.17628 -0.090225 0.32944 0.32795 0.90883 0.25782
0.162 0.12038 -1.0024 -0.018576 -0.33439 0.94225
0.13327 0.14908 -0.9615 0.14909 -0.98718 -0.057018
0.25493 0.030952 0.32191 -0.58868 -0.77391 -0.2335
-0.10059 0.0027799 0.66 0.90855 0.18034 0.37684
0.27812 -0.0047592 0.32536 -0.93195 -0.25686 -0.25593
0.27877 0.019839 0.28584 -0.77973 -0.54104 -0.31511
0.074039 -0.13096 -0.1338 0.19105 0.9806 0.043826
0.15487 0.049816 -0.37941 -0.7128 -0.67636 0.18561
-0.21484 -0.096233 0.34396 0.18815 0.97253 0.13703
0.18217 -0.1335 -0.96349 -0.72219 0.69168 0.0030887
0.21281 -0.088648 0.2918 0.011518 0.98165 0.19036
0.17477 -0.073042 0.28048 0.55833 0.76707 0.31603
0.075588 -0.029154 0.59562 -0.70483 -0.18947 -0.6836
0.071433 -0.0026502 0.58533 -0.55602 -0.41416 -0.72063
0.09265 -0.040359 -0.90636 0.89946 -0.35813 -0.25042
-0.1889 -0.09884 0.54276 0.44234 0.62316 -0.64499
0.15573 -0.0077681 0.56179 -0.29797 -0.45363 -0.8399
0.10722 0.044176 0.54624 -0.30748 -0.66339 -0.68218
0.10248 0.033527 0.55798 -0.26202 -0.5863 -0.76655
-0.33692 0.062544 0.040074 0.9249 -0.34473 -0.16035
-0.33841 0.031022 0.10509 0.996 -0.057601 -0.068315
-0.31933 0.071243 0.11052 0.68816 -0.70989 -0.14994
-0.26992 0.071464 -0.058097 -0.9217 -0.1503 0.35759
-0.32616 0.045442 0.15725 0.88663 -0.39826 -0.2351
-0.32015 0.0077854 0.20319 0.9493 0.0067197 -0.31431
-0.29614 0.058525 0.20807 0.62541 -0.68766 -0.36875
0.25557 0.0069566 0.37567 -0.79371 -0.51255 -0.32758
-0.32998 -0.006506 0.14507 0.93773 0.33793 -0.080365
-0.28784 0.082272 0.15429 0.34531 -0.92052 -0.18278
-0.24535 0.07966 0.1959 -0.069546 -0.9763 -0.20492
-0.056538 0.056934 0.54486 0.059652 -0.78874 -0.61183
0.1379 -0.13946 0.0047675 -0.51557 0.85193 0.091718
-0.21545 0.01554 -0.92339 0.73879 0.17527 -0.65075
0.062913 0.16887 0.43412 0.35501 -0.88435 -0.30314
0.080178 0.088533 0.086666 -0.46582 -0.86702 0.17688
0.00010264 0.10252 0.14328 0.0043119 -0.98341 -0.18137
-0.06609 0.034395 0.58254 0.60997 0.30876 0.7298
0.22221 0.036554 0.36787 -0.32484 -0.93216 -0.15986
0.18548 0.12272 -0.92861 -0.31038 -0.5413 -0.78144
0.15144 -0.037304 0.27694 0.9062 0.24917 0.34163
-0.078048 -0.019551 0.71256 -0.039645 0.83145 -0.55418
-0.055073 0.040502 -0.42614 -0.70166 -0.64444 0.30392
-0.14509 -0.0612 0.32037 -0.8063 0.46966 0.35958
0.24417 -0.01749 0.43277 -0.91433 -0.30872 -0.2621
0.00028546 -0.092215 0.79625 -0.00028186 0.8019 -0.59746
0.20152 -0.10913 0.40263 -0.34421 0.92611 0.15438
-0.10737 0.044283 0.54611 0.30945 -0.66656 -0.67819
0.32635 0.11234 -0.15833 0.79389 0.35489 0.49375
0.17818 0.036363 0.3842 0.19391 -0.97212 0.13186
0.23493 0.01256 0.41555 -0.75717 -0.56605 -0.32602
-0.1783 0.036402 0.38417 -0.19388 -0.97212 0.13187
0.11201 0.15373 0.46561 -0.1383 -0.68985 -0.71062
-0.29166 0.12189 -0.059097 -0.77852 -0.6197 0.099419
0.32249 0.10305 -0.14019 0.70472 0.39007 0.59263
0.10862 0.17752 0.43595 -0.090792 -0.8886 -0.44962
0.085223 0.15818 0.46179 0.080729 -0.75354 -0.65242
-0.28143 0.089811 0.099915 0.079407 -0.99262 -0.091658
0.021243 0.059268 0.54634 -0.087797 -0.91167 -0.40144
0.10119 0.092071 -1.0018 0.28119 -0.086872 0.95571
0.070296 0.074438 -0.96179 0.99649 0.016463 -0.082027
-0.15795 0.0093122 -0.70245 0.3707 -0.91231 0.17401
0.24279 -0.071644 0.42205 -0.87931 0.45439 -0.14261
0.036832 -0.089604 -0.61701 0.94324 0.31025 0.11853
0.041214 -0.10467 -0.54252 0.86976 0.48815 -0.072311
0.026095 -0.058881 -0.54449 0.9961 0.087043 -0.01441
-0.25108 -0.075486 0.36321 0.73932 0.66293 -0.11803
0.17335 -0.13708 -0.54455 -0.6542 0.70707 -0.26847
0.14527 -0.13121 -0.48898 -0.39642 0.82504 -0.40269
0.12762 -0.15881 -0.54488 -0.11971 0.95835 -0.2593
0.20863 0.032238 0.43083 -0.52393 -0.84017 -0.14008
0.13779 0.020442 0.37571 0.53197 -0.77793 0.33442
0.15404 0.024828 0.36297 0.52281 -0.84455 0.11576
-0.088622 -0.00061241 0.64252 0.88537 0.33505 0.32227
-0.077882 0.0072618 0.61095 0.70143 0.45337 0.54995
-0.11783 0.014901 -0.70627 -0.11441 -0.97476 0.19169
-0.20509 -0.076472 0.24576 -0.32193 0.92369 0.20774
-0.19494 -0.06506 0.21859 -0.57405 0.77769 0.25623
-0.1742 -0.050418 0.23686 -0.77768 0.55339 0.29827
0.20378 -0.085017 -0.96378 -0.99543 0.093216 0.020787
0.17597 -0.058797 -1.0046 -0.25878 -0.10593 0.96011
0.20675 -0.049995 -0.9526 -0.96217 0.21504 -0.16728
-0.079031 -0.00039288 -0.71062 -0.55244 -0.79467 0.25162
-0.078789 -0.035672 -0.80249 -0.7893 -0.55987 0.25208
-0.22229 0.010064 0.47808 0.77789 -0.60772 -0.15987
0.10052 -0.13876 -0.48671 0.16042 0.90691 -0.38958
0.07558 -0.1449 -0.54377 0.56706 0.8062 -0.16875
-0.21293 -0.088609 0.29177 -0.011509 0.98164 0.19037
-0.17489 -0.073003 0.28046 -0.55833 0.76708 0.31602
0.36563 0.038512 -0.16141 -0.19239 0.90175 0.3871
0.17374 0.026944 0.49951 -0.88431 -0.42686 -0.18917
0.18764 0.017745 0.52683 -0.39284 -0.76127 -0.51589
0.21058 -0.028442 -0.61046 -0.95982 -0.28058 -0.0037936
0.19522 -0.0013252 -0.5514 -0.83764 -0.53793 -0.094825
0.20828 -0.044728 -0.5479 -0.98568 -0.07146 -0.15277
0.058267 -0.11474 -0.48967 0.6955 0.67484 -0.24671
-0.047004 0.059351 0.56129 0.51468 0.16114 0.8421
-0.09488 -0.011512 0.66167 0.86887 0.30421 0.39053
0.15596 -0.16152 -0.61526 -0.37733 0.92593 -0.016589
-0.1966 -0.045235 -0.79234 0.89931 -0.42281 0.11164
-0.13555 -0.022468 0.32253 -0.96631 -0.057052 0.25098
-0.15156 -0.037267 0.27691 -0.9062 0.24918 0.34163
-0.32634 0.10223 -0.15768 -0.90373 -0.064416 0.42322
0.1965 -0.12564 -0.60973 -0.85309 0.51643 -0.074392
0.20123 -0.09134 -0.54517 -0.9294 0.31207 -0.19708
0.15407 0.029956 -0.55394 -0.32075 -0.94716 -0.0015578
0.21381 -0.074545 -0.6068 -0.98829 0.13664 -0.06788
0.083976 0.040225 0.60246 -0.85771 0.052423 0.51146
-0.3885 0.075328 -0.11928 0.95325 -0.18388 -0.23982
-0.32807 0.085196 -0.16225 -0.78403 -0.46113 0.41553
-0.35327 0.10485 -0.12709 0.14941 -0.97669 0.15411
0.057507 0.04661 0.55761 -0.17265 -0.71873 -0.67351
0.18006 -0.10484 -0.49286 -0.78192 0.53565 -0.31887
0.10589 -0.16505 -0.61784 0.24036 0.97025 0.029121
0.031904 -0.043006 -0.61882 0.97942 -0.12256 0.16038
0.033594 -0.012913 -0.54798 0.91301 -0.40759 0.016748
0.030391 -0.031612 -0.49503 0.97804 -0.169 -0.12198
0.050154 0.00077287 -0.62023 0.75048 -0.6389 0.16908
-0.33361 0.012875 0.01298 0.84022 0.5408 0.039598
-0.34518 0.07305 0.0081543 0.83929 -0.20095 -0.50518
0.034051 -0.077166 -0.49162 0.93597 0.31046 -0.16603
-0.092676 -0.13772 -0.78943 -0.67291 0.73315 0.098473
0.11512 0.11701 -1.002 0.2339 -0.30882 0.92191
0.061347 -0.13624 -0.61815 0.77012 0.63223 0.084878
-0.067325 -0.11908 -0.71294 -0.83784 0.52414 0.15263
-0.074843 -0.10872 -0.80165 -0.89977 0.41322 0.14021
0.0005743 0.098112 0.82315 0.0037565 -0.54881 -0.83594
0.022658 0.12455 0.79622 -0.22355 -0.75291 -0.619
-0.021492 0.12448 0.79606 0.22657 -0.75371 -0.61691
0.023573 0.07037 0.83409 -0.20635 -0.32104 -0.92431
0.19507 0.012093 -1.0044 -0.16998 0.11659 0.97853
0.21919 -0.015558 -0.95567 -0.91089 0.37263 -0.17729
0.00018913 -0.033846 0.83741 0.0025956 0.31425 -0.94934
-0.19981 -0.058303 0.55602 0.52187 0.17769 -0.83431
0.19321 -0.015308 0.55603 -0.43281 -0.39097 -0.8123
0.1363 0.028194 -0.61866 -0.12141 -0.98394 0.13086
-0.29059 0.10047 0.026773 -0.10455 -0.97484 -0.19687
0.16195 0.039515 0.47332 0.099214 -0.99092 -0.090774
0.18225 0.012977 -0.61622 -0.56702 -0.81819 0.095181
0.31169 0.13122 -0.10767 0.7614 -0.59974 0.24615
-0.33993 0.02065 -0.007327 0.75949 0.59539 -0.26207
-0.25169 -0.078971 0.30654 0.5436 0.83926 0.012021
-0.19501 -0.063246 -0.87611 0.97591 -0.20711 0.06866
0.19728 -0.061296 -0.49712 -0.95799 0.12244 -0.25934
0.14497 -0.06124 0.32039 0.80628 0.46968 0.3596
0.00025979 -0.064818 0.82205 0.0011736 0.55807 -0.82979
0.093202 0.026008 -0.61977 0.2379 -0.96031 0.14566
-0.27696 -0.047073 0.31943 0.91467 0.37099 -0.16042
-0.31737 0.065619 -0.14275 -0.89254 0.015009 0.45071
-0.35956 0.031785 -0.13094 0.19649 0.9699 0.14381
0.34599 0.074253 0.007675 -0.83122 -0.1957 -0.52037
-0.23482 -0.07912 0.22712 0.043396 0.98519 0.16587
-0.18713 0.018148 0.52717 0.36791 -0.77353 -0.51603
0.036348 -0.04858 -0.45455 0.97332 0.049126 -0.22412
-0.2665 -0.035023 0.37479 0.95296 0.081646 -0.29188
0.32872 0.10255 -0.16093 0.8684 -0.017845 0.49555
-0.075358 0.0689 0.59159 0.8485 -0.14185 0.50983
0.079991 -0.11186 -0.44857 0.40946 0.77433 -0.48246
-0.21706 0.046732 0.31064 0.043594 -0.99297 -0.11006
-0.18238 0.03878 0.34878 -0.28533 -0.9551 -0.079767
0.32006 0.10981 -0.12964 0.90091 -0.38448 0.20135
-0.27824 -0.0047197 0.32534 0.93194 -0.25688 -0.25592
-0.25553 0.0070798 0.37565 0.78821 -0.51823 -0.33191
0.12929 0.045087 0.53526 -0.33242 -0.54659 -0.7686
-0.22258 0.036401 0.36791 0.33304 -0.92825 -0.16564
-0.23508 0.01206 0.41472 0.75871 -0.56535 -0.32364
0.12973 -0.039442 0.34206 0.89263 0.047321 0.4483
-0.032287 0.13599 0.66819 0.16721 -0.97651 -0.13591
-0.25505 0.030991 0.32189 0.58871 -0.77389 -0.23349
0.10543 -0.11576 0.55499 -0.16292 0.79282 -0.58728
-0.090438 0.066452 0.62532 0.95601 -0.11978 0.26774
-0.040146 -0.10467 -0.54255 -0.86975 0.48816 -0.072331
-0.084009 0.039331 0.60236 0.85362 0.07981 0.51474
-0.09615 0.027285 0.63841 0.98107 0.077514 0.17749
-0.053902 -0.035978 -0.71026 -0.93223 -0.27955 0.22978
-0.066787 -0.070817 -0.80152 -0.98201 -0.041049 0.18432
-0.19528 -0.016826 -0.69723 0.79077 -0.59173 0.15666
0.13263 -0.073532 0.35759 0.70543 0.54064 0.45834
-0.051004 -0.07821 -0.71235 -0.96997 0.15012 0.19139
-0.24424 -0.017341 0.43257 0.9129 -0.31484 -0.2598
-0.12031 -0.011509 -0.88127 -0.65861 -0.40084 -0.63684
0.14001 0.084523 0.33816 -0.46835 0.19842 0.86097
0.11375 0.090075 0.33082 -0.59154 -0.45466 0.66586
0.16392 0.046777 0.37565 -0.85024 0.14732 0.50537
-0.068664 0.12367 0.68056 0.54193 -0.79376 -0.27614
-0.084421 0.11125 0.67039 0.84997 -0.50798 -0.13969
-0.11259 0.020901 0.704 0.9952 -0.089836 0.038934
0.097671 -0.13533 0.12701 -0.31942 0.8026 -0.50379
0.14436 -0.097826 0.12196 -0.73461 0.46363 -0.49537
0.10527 -0.15725 0.051948 -0.35199 0.93227 -0.083495
0.1293 -0.13492 0.09141 -0.58573 0.75327 -0.29917
0.065608 -0.15634 0.091736 0.027728 0.95794 -0.28563
0.14363 0.033008 0.33258 -0.88416 -0.32498 0.33564
0.0036247 -0.13154 0.087136 0.68654 0.66157 -0.30164
0.037958 -0.13319 0.12781 0.37463 0.74673 -0.54959
0.0024484 -0.11185 0.11522 0.61352 0.73541 -0.2877
-0.013724 0.053265 -0.1219 -0.86238 -0.50463 -0.040623
0.21739 -0.10317 0.46072 -0.70817 0.70502 -0.037835
0.069125 0.079617 0.050579 0.084272 -0.99519 0.049864
0.066118 -0.11549 0.16104 0.093313 0.77424 -0.62597
0.14078 -0.10527 0.39805 0.41909 0.82401 0.38128
0.16082 -0.12525 0.44832 0.03934 0.98747 0.1528
0.18169 -0.12241 0.49999 -0.33906 0.92774 -0.15599
0.16509 0.094114 0.46106 -0.88197 -0.24569 -0.40221
-0.29121 -0.017605 0.28013 0.96416 0.048957 -0.26078
0.086453 -0.026657 -0.9473 0.98442 -0.17443 -0.02237
-0.25178 0.044811 0.27832 0.36363 -0.87446 -0.32108
-0.019408 -0.097461 0.18693 -0.075815 0.97938 -0.18724
0.022627 -0.098267 0.18493 0.058904 0.98572 -0.15775
0.074333 -0.086973 -0.92219 0.97735 0.028308 -0.20974
0.096843 -0.13088 -0.89627 0.72978 0.68322 -0.025241
0.033847 -0.063347 0.81547 -0.3402 0.54315 -0.76762
0.13418 -0.10298 0.42116 -0.1086 0.69718 0.70862
0.17316 -0.10233 -1.006 -0.32598 0.14524 0.93415
0.093253 0.086144 0.70425 -0.92273 -0.38369 0.036893
0.10422 0.05226 0.70331 -0.95665 -0.26744 0.11531
0.15485 0.081337 -1.008 0.018444 -0.020441 0.99962
-0.22675 -0.024646 0.52369 0.87994 -0.24103 -0.40941
-0.19174 -0.0154 0.55747 0.37384 -0.38675 -0.84301
0.29302 0.12364 -0.060293 0.7785 -0.61972 0.099394
0.27128 0.073208 -0.059294 0.9217 -0.15026 0.35761
0.12522 0.043163 0.15519 -0.77858 -0.51325 -0.36108
0.097435 0.072908 0.16246 -0.63233 -0.73265 -0.25175
-0.27888 0.019878 0.28582 0.77973 -0.54104 -0.31511
0.062008 0.059288 0.82052 -0.57334 -0.25989 -0.777
0.077299 0.026301 0.8136 -0.70889 -0.039492 -0.70422
0.080719 0.071781 0.79593 -0.76811 -0.35113 -0.53546
0.045565 0.091829 0.81499 -0.43155 -0.49822 -0.75203
0.063238 0.10933 0.78382 -0.63144 -0.62282 -0.46194
0.1825 -0.023071 0.075721 -0.95605 -0.013804 -0.29287
0.16713 -0.044383 0.1155 -0.89377 0.10347 -0.43643
0.17083 -0.083105 0.079339 -0.90557 0.32999 -0.26654
0.035136 -0.15845 0.051433 0.3259 0.94167 -0.083893
0.30244 0.11518 -0.10234 0.87349 -0.25655 0.41375
0.38308 0.10514 -0.15171 -0.79921 0.51222 0.31448
-0.092379 -0.047294 -0.87839 -0.81105 -0.55334 0.18975
0.052139 0.014474 0.8328 -0.48385 0.028622 -0.87468
0.34822 0.12531 -0.037822 -0.61413 -0.63775 -0.46488
0.012317 -0.095554 0.21375 0.043787 0.99638 0.072919
0.025745 0.00060724 0.84222 -0.23444 0.11866 -0.96486
-0.17567 -0.030679 0.1993 -0.8784 0.38565 0.28229
0.031856 -0.10591 0.15879 0.26748 0.84704 -0.45932
0.086491 -0.00097503 -0.9547 0.97798 0.17883 0.10756
0.089837 0.081528 0.76586 -0.86276 -0.42887 -0.2678
-0.089625 -0.13058 0.51983 0.050602 0.9834 -0.17425
0.2785 0.036708 -0.072762 0.85899 0.27253 0.43344
0.098035 0.036072 0.78329 -0.88695 -0.12579 -0.4444
0.35067 0.014974 -0.049709 -0.66528 0.71531 -0.21384
-0.0696 0.1002 0.2688 0.34476 -0.89634 0.27876
0.041 -0.020048 -0.43891 0.8956 -0.3622 0.25829
0.073241 0.11481 0.69611 -0.7212 -0.68061 0.12899
0.31553 0.0025666 -0.019687 -0.24673 0.96515 -0.08725
-0.20518 -0.042246 0.15013 -0.62542 0.68765 0.36876
-0.18117 0.0084924 0.155 -0.94929 -0.0067138 0.31432
0.1323 0.11674 0.48588 -0.44522 -0.48839 -0.7505
0.20783 -0.10268 -0.69128 -0.941 0.33543 0.044706
-0.27714 0.034964 -0.071566 -0.859 0.27252 0.43342
-0.21649 -0.066911 0.19632 -0.29965 0.90108 0.31348
0.094109 0.085054 0.73423 -0.8998 -0.43363 -0.048206
0.072026 0.11763 0.74499 -0.74975 -0.64514 -0.14721
-0.040853 0.13554 0.66831 0.0996 -0.98273 -0.15595
0.15648 -0.12057 0.055483 -0.74545 0.64667 -0.16164
0.050161 -0.11134 0.3099 -0.034749 0.97671 0.21173
0.10479 -0.023467 0.6992 -0.96333 0.21294 0.16327
0.17408 0.081588 0.37787 -0.94618 0.04331 0.32073
0.17832 0.079477 0.42264 -0.99373 -0.067124 -0.089437
-0.024482 0.10644 0.077156 0.14469 -0.98669 0.074221
-0.060358 0.098201 -0.12584 -0.43734 -0.8993 -0.0014829
0.2134 -0.057597 -0.68987 -0.98889 -0.12755 0.076345
-0.12717 0.10469 -0.1275 0.25324 -0.96726 0.016569
-0.23673 0.073772 0.082303 -0.66501 -0.72787 0.16724
-0.2255 0.034551 0.063378 -0.89578 -0.036719 0.44298
-0.060495 -0.13615 -0.61797 -0.76983 0.63135 0.09355
-0.17819 0.071784 -0.12795 0.75864 -0.6515 0.0039222
0.14441 -0.15584 -0.962 -0.14577 0.98932 -0.00097994
0.10491 0.057533 -1.0041 0.26751 0.094641 0.9589
-0.031088 -0.04295 -0.61867 -0.97787 -0.12219 0.16983
-0.049315 0.00080946 -0.62001 -0.74975 -0.63788 0.17602
0.15268 0.0010132 0.13935 -0.8563 -0.18904 -0.48065
0.108 0.011898 -0.99405 0.46064 0.27232 0.84478
-0.1211 0.059426 -0.90305 -0.37627 -0.21463 -0.90131
0.029076 -0.032175 0.83347 -0.28369 0.32764 -0.90121
0.19634 -0.016823 -0.69721 -0.79077 -0.59168 0.15684
0.047688 -0.014958 -0.44678 0.9297 -0.25836 0.26251
0.039149 -0.0081417 -0.42533 0.95065 -0.038842 0.30781
0.1588 0.0093261 -0.70266 -0.36689 -0.9138 0.17422
0.11188 -0.019908 -0.98878 0.5159 -0.046169 0.8554
0.053862 -0.03634 -0.71229 0.93439 -0.27933 0.22111
0.079025 -0.00071924 -0.71275 0.55337 -0.79566 0.24638
0.11819 0.014636 -0.70807 0.10995 -0.97541 0.19099
-0.19676 -0.056928 -0.90819 0.94941 -0.07978 -0.30374
0.10847 0.04495 0.74266 -0.97458 -0.20968 -0.078941
-0.24141 -0.007566 0.057977 -0.67932 0.55037 0.4854
-0.20793 -0.0047221 0.10234 -0.8017 0.30247 0.51554
0.24104 -0.048977 0.47292 -0.98347 0.079265 -0.16277
0.22215 0.0098136 0.47807 -0.78115 -0.60055 -0.17069
0.049502 0.10051 0.14606 -0.20815 -0.96577 -0.1548
-0.099665 -0.010639 -0.91862 -0.92952 -0.058894 -0.36404
-0.041519 0.081517 0.0014434 0.51102 -0.78143 0.35809
0.12127 0.070457 -0.38168 -0.30061 -0.932 0.2025
0.16003 0.024539 -0.42355 -0.85087 -0.43747 0.29091
0.037371 -0.091927 0.78409 -0.35916 0.77403 -0.52141
0.099044 0.07509 -0.38117 -0.044851 -0.97223 0.2297
0.16563 -0.009309 -0.42463 -0.9297 0.11113 0.35115
0.11059 -0.12918 -0.99879 0.38968 0.44587 0.80582
-0.036004 -0.089522 -0.61686 -0.94218 0.30974 0.12788
0.22597 -0.024638 0.52143 -0.8812 -0.24195 -0.40613
0.079372 -0.11734 -0.95251 0.91193 0.41013 -0.01362
-0.2021 -0.10728 -0.92357 0.90531 0.34654 -0.2456
-0.19552 -0.096199 -0.88474 0.98172 0.18877 -0.024429
0.16222 0.070523 0.48522 -0.83368 -0.37483 -0.40557
0.11642 0.085459 0.51298 -0.2507 -0.53157 -0.80906
0.045691 -0.096935 0.2326 -0.074592 0.99539 0.060368
0.17826 0.045782 0.44157 -0.99248 -0.10607 -0.061075
-0.095575 0.021608 -0.92554 -0.87401 0.082582 -0.47885
0.045052 -0.0098374 -0.45619 0.83205 -0.50225 -0.23546
0.091773 0.083293 -0.34194 0.09159 -0.94606 0.31077
-0.059078 -0.086071 0.59224 0.46967 0.54547 -0.69417
0.22183 -0.082878 0.51154 -0.84276 0.44959 -0.29603
-0.29288 0.023908 0.25576 0.786 -0.3935 -0.47682
0.13894 -0.082426 -1.0082 0.021855 -0.10416 0.99432
-0.19061 0.12266 -0.92861 0.31037 -0.54129 -0.78146
0.086154 -0.14485 -0.030579 -0.068891 0.88388 0.46262
0.07197 -0.16101 0.011217 -0.042595 0.97954 0.19667
-0.048052 0.044846 -0.037547 0.69353 -0.39713 0.60109
0.048664 0.064587 -0.33809 0.65228 -0.71485 0.25202
0.19907 -0.027832 -0.29976 -0.97084 0.17745 0.16117
-0.080071 0.088578 0.086718 0.46247 -0.86863 0.17779
-0.25287 0.060045 0.25017 0.19706 -0.85935 -0.4719
0.00099358 0.084079 0.54387 -0.0016527 -0.14901 0.98884
0.1564 0.034575 -1.0054 0.026451 0.096613 0.99497
-0.028747 0.074115 0.54958 0.39132 0.014683 0.92014
-0.11147 0.069143 0.12336 0.63413 -0.76225 -0.12982
-0.12531 0.043209 0.15514 0.77816 -0.51459 -0.36008
0.14341 -0.02594 -0.99991 0.18162 -0.051216 0.98203
0.3821 0.11436 -0.10372 -0.8093 -0.57389 -0.12519
-0.24638 -0.04315 0.10642 -0.25254 0.86162 0.44027
-0.066287 -0.097796 0.18882 0.13585 0.9394 -0.31476
-0.12275 0.093393 0.017276 0.15737 -0.97055 -0.1824
-0.19222 0.045306 -0.047515 0.90141 -0.42362 -0.089543
-0.066397 0.086382 0.01526 -0.39619 -0.89898 -0.18674
-0.15539 0.090364 -0.048411 0.54268 -0.83692 -0.071141
-0.066284 -0.15633 0.09175 -0.027282 0.95743 -0.28738
-0.10444 -0.15722 0.051846 0.35579 0.9309 -0.08272
-0.034516 -0.15844 0.051411 -0.32469 0.94178 -0.087292
-0.0038299 -0.13999 0.012696 -0.66834 0.72573 0.16323
-0.15542 -0.12124 0.055208 0.73021 0.66392 -0.16128
-0.072193 -0.16098 0.011101 0.046352 0.97954 0.19584
-0.039242 -0.14756 -0.021787 -0.22471 0.85374 0.46972
-0.15278 0.0010239 0.13933 0.85655 -0.1891 -0.48018
-0.14473 -0.098035 0.12124 0.74416 0.47038 -0.4743
0.059897 -0.021104 0.8217 -0.56655 0.25642 -0.78312
-0.12814 -0.1351 0.090772 0.5902 0.75466 -0.28662
-0.28866 0.0031065 -0.026013 -0.39587 0.91202 0.1073
0.0892 -0.012035 0.79397 -0.81604 0.19803 -0.54301
0.096422 -0.044867 0.75303 -0.88839 0.39656 -0.23133
0.10894 -0.0013963 0.74899 -0.9809 0.11691 -0.15549
-0.094053 0.10366 -0.047614 -0.11421 -0.98793 -0.10467
0.068867 -0.055587 0.79494 -0.66391 0.47751 -0.57551
0.073049 -0.081779 0.75157 -0.7191 0.65485 -0.23253
0.064552 0.087574 -0.28658 0.44613 -0.88333 0.14387
0.025214 0.053188 -0.28399 0.80673 -0.57295 0.14462
0.07231 0.052698 -0.42964 0.42302 -0.83306 0.35647
0.08576 0.049333 -0.44722 0.2618 -0.8742 0.40894
0.066711 0.039508 -0.4484 0.55978 -0.69219 0.45555
0.10725 0.052014 -0.44631 -0.058138 -0.92376 0.37852
0.09238 0.04495 -0.4617 0.22665 -0.90152 0.36865
0.099569 0.039689 -0.4806 0.15522 -0.95821 0.24028
0.077231 0.031841 -0.47466 0.54279 -0.79876 0.25953
0.064455 0.019895 -0.48125 0.70259 -0.7094 0.055847
0.063028 0.020595 -0.4686 0.76854 -0.57907 0.27208
0.055951 0.017692 -0.45765 0.79447 -0.42739 0.43145
0.050625 0.020355 -0.44812 0.82263 -0.37569 0.42678
0.042962 0.025402 -0.42427 0.87585 -0.38402 0.29226
0.036638 0.019428 -0.40672 0.94279 -0.26084 0.20761
0.043107 0.039229 -0.39787 0.80916 -0.54574 0.21776
0.049655 0.053959 -0.3753 0.71337 -0.67707 0.18077
0.057301 0.052646 -0.40185 0.6195 -0.73914 0.26437
0.075356 0.063075 -0.40585 0.36774 -0.87631 0.31121
0.078389 0.072089 -0.38185 0.31093 -0.9199 0.23898
0.093756 0.070449 -0.39673 0.092208 -0.94642 0.3095
0.11245 0.06676 -0.40629 -0.16715 -0.9428 0.28843
0.13058 0.060341 -0.40577 -0.4287 -0.86268 0.26832
0.11925 0.057019 -0.43016 -0.26451 -0.89988 0.34676
0.12645 0.047992 -0.44446 -0.37901 -0.86446 0.33024
-0.1736 -0.021051 -0.82382 0.64012 -0.7653 0.067581
-0.16018 -0.0078517 -0.79646 0.47163 -0.87328 0.12229
-0.1567 -0.010753 -0.83762 0.3705 -0.92783 0.04314
-0.16669 -0.0043448 -0.74927 0.50952 -0.84507 0.162
-0.14741 0.0042365 -0.75146 0.28652 -0.94375 0.16504
-0.13782 0.015447 -0.70432 0.1456 -0.97394 0.1739
-0.12705 0.0065384 -0.75303 -0.047033 -0.98138 0.18623
-0.10649 0.0016504 -0.75534 -0.35975 -0.90688 0.21943
-0.11632 -0.0044661 -0.80004 -0.34017 -0.91773 0.20508
-0.10731 -0.017514 -0.82926 -0.55351 -0.80653 0.2077
-0.12934 -0.0088081 -0.84028 -0.23679 -0.96333 0.12621
-0.14279 -0.0070045 -0.86434 -0.054699 -0.99538 -0.078882
-0.12075 -0.016279 -0.88034 -0.66779 -0.67474 -0.31429
-0.15116 -0.0074581 -0.8715 0.084884 -0.83446 -0.54449
-0.15071 -0.0050729 -0.87132 0.072389 -0.48397 -0.87209
-0.17942 -0.023487 -0.88023 0.77737 -0.41761 -0.47043
-0.19028 -0.034257 -0.8932 0.89426 -0.11689 -0.43202
-0.18996 -0.043597 -0.88951 0.95156 -0.22495 -0.2096
-0.19299 -0.061142 -0.89664 0.98106 -0.17805 -0.076288
-0.19153 -0.048859 -0.87491 0.94482 -0.32673 0.023695
-0.19554 -0.055089 -0.84135 0.94522 -0.31623 0.080928
-0.18789 -0.038254 -0.83901 0.84614 -0.5291 0.064033
-0.18623 -0.027604 -0.79308 0.74823 -0.65253 0.11981
-0.19732 -0.032913 -0.74344 0.84772 -0.51228 0.13766
-0.18292 -0.016011 -0.74703 0.67587 -0.71987 0.15808
-0.17828 -0.00026456 -0.70053 0.57222 -0.80045 0.17846
0.045991 0.037296 0.56845 -0.38925 0.40209 0.82874
0.047698 0.059678 0.56164 -0.53277 0.15215 0.83247
0.058177 0.051101 0.57086 -0.60985 0.17564 0.77281
0.030496 0.074215 0.55 -0.41543 0.014655 0.90951
0.044562 0.084732 0.55962 -0.58462 -0.24525 0.77335
0.056136 0.081362 0.56907 -0.70089 -0.20066 0.68446
0.066774 0.085296 0.5838 -0.78154 -0.27683 0.55908
0.065339 0.066932 0.57675 -0.75136 -0.069251 0.65625
0.073471 0.052209 0.58549 -0.79038 0.020595 0.61227
0.082213 0.055873 0.60035 -0.88366 -0.09903 0.45754
0.087034 0.024039 0.61081 -0.84382 0.2399 0.48002
0.073826 0.020074 0.5962 -0.64184 0.38047 0.66579
0.058681 0.0107 0.59108 -0.45004 0.47168 0.75827
0.05418 0.021597 0.58178 -0.39642 0.48233 0.78116
0.032113 0.02863 0.56896 -0.21121 0.52793 0.82261
0.01718 0.023341 0.56989 -0.085754 0.55273 0.82894
0.011202 0.034796 0.56139 -0.074088 0.54947 0.83222
-0.0095177 0.034722 0.56134 0.065891 0.55034 0.83234
0.00087734 0.046394 0.55339 -0.0049113 0.4971 0.86768
-0.0080037 0.059453 0.54747 0.10459 0.32535 0.93979
0.0098569 0.059469 0.54757 -0.11686 0.32638 0.93799
0.015932 0.078328 0.54481 -0.2133 -0.019385 0.97679
0.15478 -0.092893 -0.43496 -0.56536 0.68667 -0.45701
0.16813 -0.092915 -0.45086 -0.70376 0.53979 -0.4619
0.16746 -0.080974 -0.43865 -0.76727 0.49783 -0.4043
0.16643 -0.10719 -0.46868 -0.64067 0.65131 -0.40662
0.18086 -0.089298 -0.47134 -0.82727 0.43126 -0.36006
0.19196 -0.083609 -0.49502 -0.90453 0.32136 -0.28029
0.18897 -0.069527 -0.47375 -0.91971 0.21776 -0.32666
0.19217 -0.047742 -0.47558 -0.9507 -0.0015104 -0.3101
0.18477 -0.055595 -0.45568 -0.91834 0.095101 -0.38421
0.17951 -0.044893 -0.44422 -0.95899 -0.0044347 -0.28339
0.17647 -0.063107 -0.44168 -0.90521 0.25603 -0.33917
0.16579 -0.075416 -0.4238 -0.79084 0.56613 -0.23252
0.16594 -0.068678 -0.39839 -0.81385 0.57932 -0.045146
0.14675 -0.085265 -0.39937 -0.53109 0.84222 -0.092793
0.12994 -0.093893 -0.36999 -0.28115 0.95706 0.070605
0.12891 -0.092895 -0.39779 -0.25931 0.96114 -0.094754
0.11116 -0.095177 -0.39596 -0.10308 0.98998 -0.096459
0.13527 -0.095628 -0.41783 -0.31732 0.89601 -0.3106
0.13896 -0.10116 -0.43216 -0.32915 0.81457 -0.47764
0.12128 -0.10447 -0.43085 -0.12724 0.86272 -0.48941
0.13678 -0.11168 -0.44568 -0.29983 0.79413 -0.52863
0.13264 -0.12472 -0.46454 -0.28848 0.83375 -0.47078
0.14995 -0.11782 -0.4667 -0.44129 0.78225 -0.43972
0.16368 -0.12194 -0.49063 -0.57496 0.72824 -0.37294
0.046742 -0.0040497 -0.44895 0.94527 -0.061476 0.32045
0.040278 0.0064942 -0.42917 0.95117 -0.099072 0.29234
0.031557 0.0089337 -0.39401 0.95053 -0.18912 0.24642
0.029644 -0.0051712 -0.39521 0.94805 -0.13589 0.28765
0.025025 0.012608 -0.36665 0.92767 -0.25873 0.26924
0.017164 0.013267 -0.34027 0.93456 -0.24783 0.2553
0.028206 0.032184 -0.35157 0.85289 -0.44039 0.28042
0.032857 0.048014 -0.3378 0.78501 -0.56827 0.24662
0.042825 0.052939 -0.35285 0.72154 -0.63852 0.26773
0.060933 0.068866 -0.35347 0.51523 -0.80552 0.2927
0.052944 0.061217 -0.3583 0.63705 -0.74753 0.18807
0.064233 0.06861 -0.36365 0.5048 -0.85484 0.12008
-0.29825 0.12084 -0.086202 -0.82029 -0.48651 0.30071
-0.28715 0.10032 -0.079462 -0.867 -0.27332 0.41666
-0.29473 0.10031 -0.093444 -0.85902 -0.15668 0.48737
-0.31077 0.093661 -0.11639 -0.75318 0.29459 0.58816
-0.34823 0.07901 -0.12975 0.056782 0.84174 0.53688
-0.31481 0.094664 -0.12468 -0.76509 0.42106 0.48718
-0.31502 0.13464 -0.11553 -0.77473 -0.61265 0.15639
0.022927 0.047117 0.84096 -0.17271 -0.20555 -0.96329
0.01133 0.03475 0.84453 -0.070473 -0.14251 -0.98728
0.027481 0.032319 0.84247 -0.22725 -0.1191 -0.96653
-0.010013 0.034748 0.84447 0.076099 -0.14403 -0.98664
0.00041611 0.022051 0.84637 0.0034298 -0.055534 -0.99845
-0.0075836 0.0091295 0.84603 0.06622 0.068085 -0.99548
0.0079381 0.0091351 0.84608 -0.058435 0.069464 -0.99587
0.012455 -0.0051522 0.84398 -0.10795 0.14677 -0.98326
0.020211 0.018539 0.84476 -0.16773 0.0021774 -0.98583
0.037157 0.022882 0.84044 -0.33575 -0.021986 -0.94169
0.039479 0.0077216 0.83869 -0.37682 0.076812 -0.9231
0.049278 0.031567 0.83413 -0.45658 -0.065239 -0.88729
0.061043 0.038444 0.82671 -0.55691 -0.11336 -0.8228
0.05074 0.052052 0.83014 -0.44991 -0.2078 -0.86856
0.045847 0.068881 0.82754 -0.40724 -0.32384 -0.85398
0.034245 0.058395 0.83509 -0.28056 -0.25864 -0.92433
0.012141 0.058033 0.83973 -0.095606 -0.24585 -0.96458
0.00059572 0.070596 0.83701 0.0030427 -0.31509 -0.94906
-0.010802 0.057941 0.83968 0.10049 -0.24437 -0.96446
-0.032951 0.058229 0.835 0.27948 -0.25705 -0.9251
-0.021494 0.04702 0.84086 0.17444 -0.20546 -0.963
-0.026261 0.032293 0.84233 0.22866 -0.12219 -0.96581
0.20373 0.055745 -0.91362 -0.48978 -0.083175 -0.86787
0.20001 0.036508 -0.90935 -0.57547 -0.025686 -0.81742
0.21641 0.03588 -0.92478 -0.68136 0.12543 -0.72112
0.17562 0.041851 -0.89815 -0.3758 -0.24527 -0.89365
0.19444 0.016702 -0.90581 -0.66955 0.0079865 -0.74272
0.19007 -0.0024193 -0.90149 -0.75649 0.022409 -0.65363
0.20287 -0.002764 -0.91986 -0.79037 0.17247 -0.58785
0.20909 -0.019086 -0.93483 -0.84783 0.25238 -0.46636
0.21671 -0.0011997 -0.93683 -0.81356 0.27546 -0.5121
0.22809 0.0042146 -0.95896 -0.91839 0.36181 -0.16015
0.22481 0.017892 -0.93915 -0.80305 0.25358 -0.53926
0.23013 0.04078 -0.93719 -0.7839 0.17194 -0.59661
0.24219 0.054405 -0.95689 -0.98006 0.060816 -0.18916
0.2335 0.068642 -0.93751 -0.80537 -0.090737 -0.58579
0.22304 0.099853 -0.93782 -0.72083 -0.39325 -0.57075
0.21962 0.082332 -0.92637 -0.59245 -0.20028 -0.78032
0.20493 0.09648 -0.92286 -0.38729 -0.35859 -0.84936
0.20426 0.075385 -0.91611 -0.40227 -0.18117 -0.89742
0.18199 0.076113 -0.90943 -0.24427 -0.25537 -0.93548
0.16771 0.093308 -0.91213 -0.16364 -0.31831 -0.93376
0.15438 0.079224 -0.9054 -0.11425 -0.31765 -0.9413
0.12559 0.080588 -0.90559 0.11487 -0.25877 -0.95909
0.1491 0.063314 -0.89871 -0.07234 -0.33547 -0.93927
0.1472 0.045804 -0.89108 -0.047035 -0.36864 -0.92838
-0.0012698 -0.11793 0.10279 -0.70897 0.59548 -0.37784
-0.017955 -0.12172 0.12281 -0.55071 0.68698 -0.47411
-0.021468 -0.13625 0.1077 -0.5311 0.72016 -0.44643
-0.018672 -0.11209 0.13866 -0.39085 0.82175 -0.41468
-0.0354 -0.11724 0.14351 -0.38502 0.74746 -0.54135
-0.049595 -0.11038 0.16249 -0.24347 0.78773 -0.56587
-0.05658 -0.12502 0.14662 -0.21732 0.76837 -0.60197
-0.082378 -0.1276 0.1462 0.11187 0.79974 -0.58983
-0.069288 -0.14089 0.12883 -0.028502 0.84164 -0.53929
-0.083993 -0.14935 0.1103 0.16048 0.90085 -0.40338
-0.050875 -0.14853 0.10975 -0.20143 0.88377 -0.42234
-0.032562 -0.15108 0.090125 -0.36591 0.88072 -0.30075
-0.049652 -0.16012 0.07157 -0.18668 0.96401 -0.18928
-0.01639 -0.14763 0.070197 -0.51501 0.83342 -0.20044
-0.0012419 -0.14138 0.050297 -0.66664 0.74079 -0.082597
0.0092927 -0.12389 0.068562 -0.79966 0.56462 -0.20434
0.022083 -0.098626 0.066801 -0.91187 0.38082 -0.15321
0.013532 -0.10871 0.084673 -0.83548 0.4771 -0.27268
0.010849 -0.10575 0.095287 -0.75454 0.63051 -0.18199
0.0088599 -0.10498 0.085107 -0.4329 0.88916 0.14831
0.0019055 -0.11 0.10618 -0.32745 0.94472 -0.016854
0.00049916 -0.11209 0.11871 0.0012945 0.99918 -0.040573
-0.008021 -0.10973 0.1315 -0.21903 0.95082 -0.219
-0.018494 -0.10481 0.15438 -0.13364 0.93775 -0.32057
0.11584 0.037257 -0.89626 0.50603 -0.24166 -0.82797
0.14408 0.025143 -0.88241 -0.0098713 -0.32879 -0.94435
0.14511 0.0059644 -0.87613 -0.018202 -0.32788 -0.94454
0.17237 0.0018562 -0.88569 -0.5671 -0.18394 -0.80285
0.18646 -0.020586 -0.89811 -0.83542 -0.016486 -0.54936
0.11047 0.10028 -0.91293 0.30955 -0.3098 -0.899
0.097738 0.079033 -0.91449 0.5638 -0.13464 -0.81486
0.08333 0.074245 -0.92924 0.80765 -0.039629 -0.58833
0.091427 0.057611 -0.91961 0.73635 0.010925 -0.67651
0.08654 0.040429 -0.92862 0.84811 0.097057 -0.52085
0.096593 0.039384 -0.9134 0.75895 -0.030462 -0.65043
0.09879 0.020314 -0.91028 0.82674 -0.034327 -0.56154
0.14337 0.036634 -0.44358 -0.6891 -0.66121 0.29656
0.137 0.03858 -0.45711 -0.57283 -0.78591 0.23283
0.14495 0.027995 -0.46882 -0.71623 -0.69588 0.052509
0.1227 0.038782 -0.47902 -0.24713 -0.94992 0.19127
0.1096 0.036729 -0.50439 0.032468 -0.99427 0.10185
0.13862 0.063052 -0.38175 -0.50032 -0.84132 0.20461
0.14559 0.050753 -0.40536 -0.62764 -0.73576 0.25442
0.1606 0.035375 -0.40128 -0.79223 -0.56062 0.241
0.14972 0.037575 -0.42895 -0.7245 -0.61972 0.30173
0.15425 0.021918 -0.44228 -0.8552 -0.3957 0.33474
0.16515 0.0082404 -0.42628 -0.92692 -0.17081 0.33412
0.15833 0.0022829 -0.44399 -0.94215 -0.078131 0.32594
0.16276 -0.0093905 -0.42899 -0.9597 -0.080583 0.26921
0.15733 0.0019509 -0.44668 -0.96319 -0.23643 0.12797
0.15624 0.002931 -0.44563 -0.85909 -0.49707 -0.12201
0.154 0.0117 -0.45732 -0.89505 -0.4338 -0.10348
0.15083 0.023027 -0.47714 -0.63184 -0.75739 -0.16473
0.048514 -0.07541 -0.44043 0.84152 0.50163 -0.20054
0.06196 -0.091142 -0.4368 0.64872 0.69418 -0.31188
0.05126 -0.078322 -0.42331 0.77019 0.63704 -0.031459
0.065686 -0.10177 -0.44714 0.57824 0.69229 -0.43171
0.081022 -0.10372 -0.43578 0.37048 0.79479 -0.48069
0.09731 -0.11554 -0.44382 0.15207 0.81619 -0.55742
0.102 -0.10551 -0.43083 0.072792 0.86435 -0.49759
0.099263 -0.10054 -0.41721 0.066716 0.96297 -0.26123
0.093916 -0.096405 -0.39542 0.042693 0.99619 -0.076092
0.071062 -0.09149 -0.39553 0.36149 0.93237 -0.0024389
0.046139 -0.081586 -0.36189 0.65559 0.74598 0.11716
0.049133 -0.077787 -0.39648 0.71701 0.69269 0.077962
0.036714 -0.058464 -0.39436 0.88228 0.45419 0.12369
0.021528 -0.041277 -0.35618 0.9358 0.30078 0.18386
0.029363 -0.040158 -0.39492 0.96168 0.21231 0.17348
0.031792 -0.021724 -0.41016 0.9562 -0.12423 0.26504
0.035005 -0.038966 -0.42868 0.98629 0.032134 0.16188
0.039803 -0.056599 -0.44392 0.97176 0.21326 -0.10103
0.040683 -0.069695 -0.45206 0.90192 0.32868 -0.28019
0.034276 -0.062353 -0.47082 0.96094 0.18404 -0.2067
0.041931 -0.084095 -0.46875 0.8658 0.42912 -0.25739
0.043764 -0.097921 -0.49035 0.82532 0.5278 -0.20067
0.053846 -0.10094 -0.46708 0.72296 0.6172 -0.31048
0.069436 -0.11491 -0.46535 0.56029 0.74064 -0.37086
-0.14941 -0.025181 0.57221 0.31855 -0.25984 -0.9116
-0.12949 -0.0051319 0.57154 0.25459 -0.36184 -0.8968
-0.16568 -0.046309 0.57088 0.26938 -0.036805 -0.96233
-0.1452 -0.044723 0.576 0.2245 0.0049505 -0.97446
-0.12608 -0.051116 0.57964 0.24823 0.043317 -0.96773
-0.12446 -0.034222 0.57929 0.21435 -0.099095 -0.97172
-0.1012 -0.023743 0.58407 0.27107 -0.21648 -0.9379
-0.11631 -0.014836 0.57745 0.21205 -0.26035 -0.94194
-0.10177 -0.0039348 0.57724 0.21744 -0.35054 -0.91096
-0.081005 -0.0078271 0.584 0.33715 -0.39346 -0.85529
-0.079742 0.0061686 0.57766 0.31887 -0.41415 -0.85252
-0.0723 0.010477 0.57909 0.64912 -0.36494 -0.66743
-0.071714 0.024508 0.57041 0.32441 -0.51127 -0.79584
-0.057314 0.047825 0.55716 0.16377 -0.73918 -0.6533
-0.076707 0.03607 0.56371 0.1735 -0.53109 -0.82936
-0.10424 0.020645 0.56616 0.21746 -0.45681 -0.86257
-0.12535 0.01653 0.56193 0.33234 -0.52246 -0.78523
-0.13132 0.025545 0.55127 0.39611 -0.61619 -0.68075
-0.12163 0.041082 0.54176 0.34284 -0.61175 -0.7129
-0.14398 0.023056 0.54482 0.37532 -0.57752 -0.72499
-0.14723 0.038126 0.53226 0.41104 -0.57368 -0.70847
-0.16112 0.016286 0.54216 0.32946 -0.62004 -0.71205
-0.17379 0.022728 0.52721 0.37741 -0.72547 -0.57555
-0.17219 0.0065503 0.54802 0.23743 -0.66201 -0.71089
-0.18887 -0.00013915 0.54855 0.34705 -0.6177 -0.7057
-0.1781 -0.01718 0.56198 0.20434 -0.37413 -0.90458
-0.19714 -0.034154 0.56 0.46494 -0.096687 -0.88005
-0.17872 -0.042684 0.56737 0.28797 -0.052425 -0.9562
-0.17984 -0.066021 0.56415 0.33324 0.22858 -0.91471
-0.011093 -0.10092 0.16947 -0.011414 0.97114 -0.23824
-0.030428 -0.1007 0.1699 -0.09077 0.96062 -0.26261
-0.042221 -0.098803 0.18907 -0.037786 0.98691 -0.15676
-0.046693 -0.10194 0.17323 -0.1434 0.91228 -0.38364
-0.06631 -0.10489 0.1735 -0.048076 0.82342 -0.56539
-0.090189 -0.097329 0.17879 0.35146 0.73023 -0.58586
-0.087999 -0.11222 0.16479 0.2035 0.73627 -0.64536
-0.11022 -0.11798 0.14403 0.46795 0.68571 -0.55752
0.18101 -0.056311 -0.33454 -0.86048 0.46815 0.20105
0.16518 -0.07679 -0.33697 -0.70455 0.68839 0.17241
0.17249 -0.061445 -0.36542 -0.86417 0.49146 0.10809
0.16003 -0.090997 -0.30603 -0.60517 0.77271 0.19154
0.14236 -0.09263 -0.34021 -0.42201 0.89041 0.17052
0.11555 -0.099188 -0.33995 -0.098735 0.98089 0.16765
0.17542 -0.044883 -0.39807 -0.98978 0.14211 0.011747
0.17682 -0.030798 -0.42682 -0.97134 -0.21853 -0.093538
0.17126 -0.019093 -0.4118 -0.9136 -0.40352 0.05013
0.16088 -0.0047964 -0.43236 -0.87444 -0.48329 0.04229
0.16801 -0.014475 -0.41409 -0.94059 -0.27078 0.20487
0.17306 -0.017954 -0.39943 -0.94655 0.082918 0.31173
0.17575 -0.0048235 -0.39623 -0.95565 -0.022682 0.29363
0.1855 -0.017583 -0.36214 -0.95537 0.069955 0.287
0.19507 -0.011038 -0.33113 -0.96979 0.0033436 0.24392
0.19055 -0.035553 -0.33212 -0.93582 0.26497 0.23244
0.19211 -0.05094 -0.30121 -0.89677 0.40681 0.17411
0.20082 -0.041994 -0.26334 -0.94842 0.29709 0.11057
0.18988 -0.065592 -0.26447 -0.84727 0.51726 0.12077
0.1854 -0.080299 -0.22257 -0.79183 0.60264 0.099127
0.17408 -0.085507 -0.26581 -0.72678 0.6741 0.13187
0.15295 -0.10407 -0.26759 -0.52138 0.83798 0.16109
-0.040904 0.056242 0.5485 0.16633 -0.8785 -0.44785
-0.046322 0.050649 0.5593 0.35651 -0.89109 -0.28081
-0.071913 -0.0050429 0.5838 0.89352 -0.22114 -0.39079
-0.073509 0.011152 0.57713 0.95443 -0.23481 -0.1842
-0.0717 0.020912 0.59196 0.90172 -0.42935 -0.050663
-0.059544 0.038433 0.57528 0.64908 -0.73601 -0.19229
-0.055013 0.036375 0.59755 0.60017 -0.79874 -0.042485
-0.038411 0.04868 0.5752 0.27983 -0.93771 -0.20592
-0.027237 0.053 0.5625 0.14837 -0.96121 -0.23251
-0.031039 0.055299 0.55487 0.10792 -0.94627 -0.30483
-0.029366 0.061943 0.54026 0.06356 -0.82317 -0.56422
-0.18047 -0.049697 0.077744 0.95533 0.1475 -0.25609
-0.17085 -0.064232 0.099882 0.91118 0.22959 -0.34211
-0.17585 -0.033992 0.096211 0.94267 0.030868 -0.33229
-0.15764 -0.094256 0.10324 0.817 0.43481 -0.37876
-0.159 -0.073273 0.11935 0.82868 0.29704 -0.47441
-0.14474 -0.07672 0.13853 0.77436 0.3254 -0.54266
-0.15498 -0.051293 0.13484 0.82811 0.17353 -0.53302
-0.15003 -0.0281 0.1485 0.83214 0.047642 -0.55252
-0.16162 -0.023332 0.12881 0.8803 -0.026173 -0.47369
-0.16197 0.0048545 0.11871 0.88465 -0.25462 -0.39059
-0.17079 -0.014565 0.10889 0.91738 -0.11825 -0.38003
-0.17817 -0.0065023 0.084465 0.93278 -0.16359 -0.32119
-0.17982 0.016898 0.061971 0.91213 -0.28078 -0.29862
-0.18631 -0.0054677 0.057209 0.95831 -0.12101 -0.25884
-0.19535 -0.013595 0.024132 0.97424 -0.051738 -0.21948
-0.18779 -0.032073 0.053723 0.97074 0.061683 -0.23209
-0.18316 -0.062915 0.053462 0.95048 0.21702 -0.22246
-0.18742 -0.074093 0.021153 0.93117 0.3189 -0.1767
-0.17685 -0.088528 0.048876 0.90802 0.37496 -0.18686
-0.16693 -0.11 0.041685 0.8192 0.56048 -0.12155
-0.16348 -0.10737 0.067125 0.82101 0.5236 -0.22755
-0.14384 -0.12786 0.073815 0.66731 0.7071 -0.23391
-0.1526 -0.11238 0.089321 0.76058 0.57325 -0.30478
-0.13878 -0.11905 0.1056 0.6793 0.62736 -0.38075
-0.19915 -0.055891 -0.011751 0.95702 0.23771 -0.16617
-0.18945 -0.082748 -0.013959 0.89073 0.43874 -0.1188
-0.18735 -0.093355 -0.0534 0.80969 0.58612 -0.029487
-0.17435 -0.10765 -0.017161 0.76689 0.64071 -0.037052
-0.15294 -0.12632 -0.020544 0.56369 0.82333 0.066116
-0.16255 -0.11996 0.010723 0.72361 0.68963 -0.028446
-0.14988 -0.13054 0.034079 0.66314 0.74675 -0.050989
-0.19978 0.0024916 -0.0086016 0.97309 -0.15329 -0.17205
-0.20256 -0.026001 -0.0096381 0.98371 0.014563 -0.17916
-0.20817 -0.039322 -0.049706 0.98695 0.11909 -0.10839
-0.21189 -0.023751 -0.089864 0.99887 0.015989 -0.044828
-0.2081 -0.052417 -0.092015 0.96666 0.25513 -0.021604
-0.20338 -0.064582 -0.1362 0.91372 0.40351 0.047858
-0.19713 -0.079238 -0.093447 0.86056 0.50928 0.0080366
-0.17859 -0.10223 -0.093917 0.6964 0.71668 0.037299
0.15597 0.15368 0.41538 -0.83092 -0.54403 -0.11664
0.16789 0.12995 0.41526 -0.92299 -0.36347 -0.12637
0.16135 0.14676 0.39892 -0.86584 -0.49819 0.04619
0.17269 0.10735 0.43015 -0.94654 -0.25299 -0.20016
0.17634 0.10346 0.41032 -0.97964 -0.19557 -0.045248
0.17842 0.077302 0.39883 -0.99302 0.0094139 0.1176
0.17572 0.10252 0.3898 -0.97512 -0.16438 0.14871
0.16859 0.10518 0.36628 -0.89835 -0.1566 0.41043
0.16674 0.12948 0.38172 -0.90099 -0.36392 0.23618
0.1529 0.1542 0.38298 -0.74491 -0.59364 0.30447
0.14181 0.15702 0.3701 -0.55273 -0.67977 0.48208
0.14235 0.1687 0.396 -0.63025 -0.75334 0.18776
0.12311 0.18251 0.41011 -0.32979 -0.94396 -0.013407
0.14167 0.17016 0.41909 -0.65155 -0.73974 -0.16812
0.15028 0.15653 0.43014 -0.75375 -0.58283 -0.30358
0.14174 0.15688 0.4447 -0.60889 -0.64802 -0.45752
0.15684 0.13819 0.44292 -0.81982 -0.45366 -0.3494
0.15626 0.12182 0.46005 -0.79245 -0.37393 -0.48186
0.16658 0.11265 0.44579 -0.89545 -0.30112 -0.32787
0.17419 0.084617 0.44307 -0.95637 -0.15411 -0.24821
0.078021 -0.076218 -0.97711 0.91477 -0.11066 0.38853
0.082562 -0.050367 -0.97552 0.87715 -0.2887 0.38374
0.09752 -0.067111 -0.99808 0.5307 -0.20413 0.82261
0.083391 -0.040548 -0.94674 0.9591 -0.27636 -0.061204
0.089434 -0.031212 -0.97261 0.83632 -0.33835 0.43137
0.09323 -0.020204 -0.97171 0.84747 -0.1605 0.506
0.10914 -0.02639 -0.98796 0.49528 -0.27964 0.82249
0.12446 -0.038973 -0.99794 0.24361 -0.2448 0.93847
0.14098 -0.053916 -1.0038 0.08868 -0.17163 0.98116
0.12298 -0.060344 -1.0045 0.12932 -0.22544 0.96564
0.11318 -0.086866 -1.0077 0.24817 -0.059767 0.96687
0.12351 -0.10958 -1.009 0.15686 0.13585 0.97823
0.099142 -0.10973 -0.99971 0.53898 0.19043 0.82051
0.086915 -0.12714 -0.97927 0.78958 0.48155 0.38035
0.079247 -0.10359 -0.97796 0.90462 0.16547 0.39279
0.072199 -0.089475 -0.95579 0.9969 0.032504 0.071712
0.07517 -0.10257 -0.936 0.96514 0.24272 -0.097943
0.074348 -0.072597 -0.9366 0.98312 -0.16912 -0.069792
0.079696 -0.063493 -0.91638 0.93875 -0.2637 -0.22182
0.082528 -0.048661 -0.93049 0.93199 -0.32865 -0.15291
0.08859 -0.033665 -0.9277 0.94467 -0.23399 -0.22988
-0.083069 -0.10457 0.29759 0.28687 0.90402 0.31696
-0.092608 -0.085203 0.2577 0.47355 0.84714 0.24104
-0.067939 -0.097214 0.26564 0.26112 0.94385 0.20239
-0.11562 -0.069132 0.25451 0.69374 0.67796 0.24309
-0.11555 -0.059766 0.21956 0.76353 0.63056 0.13936
-0.12815 -0.025644 0.19354 0.9766 0.21457 -0.014769
-0.11952 -0.050184 0.19634 0.8642 0.49339 -0.098568
-0.12348 -0.04914 0.18414 0.85164 0.35609 -0.38458
-0.10583 -0.067153 0.19846 0.7626 0.59367 -0.25689
-0.096546 -0.084306 0.19272 0.59671 0.67676 -0.43121
-0.081683 -0.087447 0.21066 0.48224 0.86465 -0.14082
-0.055025 -0.095536 0.21233 0.11741 0.99125 -0.060319
-0.063654 -0.095302 0.23883 0.25196 0.9658 0.061165
-0.046498 -0.098871 0.25274 0.12379 0.98191 0.14326
-0.030926 -0.097553 0.22777 0.0063298 0.99577 0.091618
-0.026429 -0.10113 0.25309 0.025116 0.98636 0.16266
-0.0087387 -0.099043 0.24162 -0.012776 0.98858 0.15013
-0.018904 -0.11038 0.30641 -0.047882 0.98632 0.15771
-0.012832 -0.12067 0.38409 -0.096321 0.98887 0.11336
-0.035515 -0.12368 0.385 -0.095776 0.98738 0.12613
-0.062229 -0.1326 0.45316 -0.051682 0.99737 0.050801
-0.067218 -0.1292 0.39945 -0.063549 0.99125 0.11566
-0.10448 -0.13125 0.4137 0.15889 0.9781 0.13444
-0.087832 -0.12119 0.35231 0.17633 0.95262 0.24784
-0.10664 -0.10451 0.32344 0.46187 0.82279 0.33121
-0.13484 -0.084719 0.33185 0.8198 0.50529 0.26945
-0.12376 -0.079258 0.2951 0.71357 0.62733 0.31188
-0.13102 -0.047385 0.26253 0.90869 0.36224 0.20751
-0.17284 0.093259 -0.91213 0.16364 -0.3183 -0.93376
-0.18713 0.076074 -0.90943 0.24451 -0.25576 -0.93531
-0.15952 0.079188 -0.9054 0.11438 -0.31815 -0.94111
-0.2094 0.075334 -0.91611 0.40228 -0.18115 -0.89741
-0.20891 0.055741 -0.91365 0.49111 -0.084747 -0.86696
-0.22161 0.035864 -0.92483 0.68353 0.12427 -0.71927
-0.20547 0.036548 -0.90945 0.58001 -0.028713 -0.8141
-0.20015 0.016635 -0.90598 0.67592 0.0085232 -0.73693
-0.18123 0.041915 -0.89822 0.37891 -0.24906 -0.89129
-0.15295 0.045766 -0.89109 0.048359 -0.36904 -0.92816
-0.15445 0.063294 -0.89872 0.073034 -0.3365 -0.93885
-0.13073 0.080521 -0.90558 -0.11491 -0.25825 -0.95922
-0.1029 0.07897 -0.91447 -0.56306 -0.13419 -0.81545
-0.11561 0.10023 -0.91293 -0.30955 -0.3098 -0.899
-0.10919 0.12045 -0.92675 -0.47552 -0.53859 -0.69556
-0.13986 0.11871 -0.9172 -0.022331 -0.44868 -0.89341
-0.17009 0.13261 -0.92905 0.19119 -0.6546 -0.7314
-0.16646 0.11191 -0.91737 0.16043 -0.35842 -0.91967
-0.1903 0.10554 -0.92041 0.25997 -0.37273 -0.89078
-0.21006 0.09643 -0.92286 0.38729 -0.3586 -0.84936
-0.22476 0.082282 -0.92637 0.59246 -0.20028 -0.78031
-0.27783 -0.055751 0.14232 0.27592 0.93949 0.20303
-0.28259 -0.05892 0.1727 0.42681 0.90173 0.068685
-0.30176 -0.045234 0.1534 0.60599 0.7933 0.058804
-0.26153 -0.067234 0.19111 0.24685 0.96131 0.12226
-0.2854 -0.056793 0.20235 0.57506 0.81764 -0.027776
-0.28771 -0.053648 0.22486 0.69658 0.71383 -0.072297
-0.30292 -0.037395 0.21381 0.80987 0.55966 -0.17576
-0.31136 -0.011931 0.22363 0.92908 0.20782 -0.30597
-0.31776 -0.019889 0.19514 0.90132 0.37794 -0.21164
-0.32779 -0.00019629 0.17421 0.96274 0.17764 -0.20392
-0.31943 -0.025571 0.16468 0.84604 0.52652 -0.083609
-0.31805 -0.029137 0.13498 0.75857 0.64937 0.053645
-0.32922 -0.010473 0.11687 0.88411 0.46503 0.045724
-0.31384 -0.028103 0.10768 0.65237 0.73999 0.16379
-0.31148 -0.023049 0.07557 0.56692 0.79939 0.19896
-0.29104 -0.038527 0.097832 0.3091 0.90521 0.29163
-0.26697 -0.038694 0.089814 -0.061909 0.91232 0.40476
-0.27223 -0.049299 0.11376 0.11605 0.93483 0.3356
-0.25064 -0.055716 0.13286 -0.094715 0.94029 0.32693
-0.22502 -0.045062 0.12672 -0.44967 0.79314 0.41076
-0.22863 -0.058799 0.15394 -0.3007 0.90166 0.31078
-0.20864 -0.056598 0.17586 -0.48149 0.81668 0.31811
-0.23433 -0.067192 0.18172 -0.12411 0.9619 0.24362
-0.24257 -0.072969 0.20316 0.076679 0.9712 0.22561
-0.10103 -0.054974 0.58647 0.29323 0.062376 -0.95401
-0.077586 -0.062979 0.59265 0.39159 0.17945 -0.90247
-0.081901 -0.050672 0.5929 0.45545 0.078637 -0.88678
-0.074259 -0.078826 0.58996 0.33696 0.36221 -0.86906
-0.069726 -0.065804 0.59727 0.58432 0.29489 -0.75605
-0.062763 -0.071268 0.60107 0.78905 0.45573 -0.41195
-0.06887 -0.05993 0.59952 0.80816 0.27469 -0.52099
-0.074381 -0.038062 0.59805 0.93584 0.023947 -0.35161
-0.074185 -0.048187 0.5994 0.66444 0.088249 -0.74212
-0.083285 -0.033956 0.59127 0.4537 -0.13707 -0.88055
-0.08223 -0.019993 0.58817 0.40246 -0.29719 -0.86586
-0.11879 -0.066907 0.57998 0.27843 0.15994 -0.94705
-0.12083 -0.088601 0.57338 0.25815 0.43312 -0.86358
-0.098414 -0.081816 0.58257 0.23809 0.35453 -0.90422
-0.06932 -0.09561 0.58065 0.2448 0.56419 -0.78852
-0.33669 0.012732 0.12555 0.98857 0.13474 -0.06762
-0.33785 0.014653 0.091894 0.97649 0.21534 0.009539
-0.33901 0.043381 0.073567 0.98456 -0.16702 -0.05233
-0.33942 0.024521 0.052398 0.98039 0.19704 0.001456
-0.34282 0.036359 0.021407 0.98459 0.14772 -0.093648
-0.32948 0.003427 0.045037 0.83767 0.54023 0.080377
-0.31174 -0.013352 0.037121 0.48851 0.84772 0.20671
-0.31367 -0.0043651 0.0036602 0.41028 0.88084 0.23623
-0.28377 -0.016412 0.0292 -0.095112 0.92892 0.35785
-0.26074 -0.0042862 0.025717 -0.59586 0.67547 0.43438
-0.26173 -0.025107 0.060729 -0.31203 0.84885 0.42673
-0.24197 -0.028 0.083794 -0.45021 0.74132 0.49774
-0.13174 0.063426 0.33261 0.78491 -0.39806 0.47484
-0.11582 0.081463 0.3195 0.79464 -0.51914 0.3147
-0.12722 0.051698 0.30922 0.86662 -0.40765 0.28774
-0.12627 0.042361 0.28665 0.89324 -0.4029 0.19947
-0.13798 0.023624 0.3026 0.90427 -0.33452 0.26531
-0.14833 -0.0051757 0.31015 0.94711 -0.11168 0.30085
-0.14979 0.010539 0.3288 0.79736 -0.33739 0.50039
-0.14378 -0.036499 0.32678 0.48939 0.55145 0.67558
-0.17785 0.062029 0.43015 0.99396 -0.050644 -0.097347
-0.17827 0.064037 0.40928 0.99207 -0.1256 -0.0044022
-0.17854 0.077343 0.3988 0.99301 0.0093798 0.11763
-0.17074 0.068038 0.37574 0.8776 0.022244 0.47888
-0.16237 0.078057 0.35627 0.75114 0.17833 0.6356
-0.14873 0.064344 0.35099 0.58588 0.26585 0.76555
-0.12649 0.078601 0.33487 0.42289 0.095965 0.90109
-0.19367 0.029962 -0.0083517 0.93723 -0.30591 -0.16738
-0.2026 0.018709 -0.047143 0.96079 -0.25397 -0.11123
-0.2006 0.034227 -0.087171 0.92759 -0.37014 -0.05073
-0.20903 0.0056662 -0.088265 0.98104 -0.18517 -0.05725
-0.21226 -0.0082958 -0.13221 0.99699 -0.07744 0.0035004
-0.2721 -0.065793 0.22971 0.56599 0.82143 0.070084
-0.28477 -0.054324 0.24265 0.75088 0.6535 -0.095435
-0.277 -0.060597 0.25368 0.69182 0.7142 -0.10633
-0.28933 -0.044423 0.25684 0.85279 0.49462 -0.16762
-0.28856 -0.038634 0.27561 0.91684 0.35218 -0.1881
-0.29601 -0.022128 0.2614 0.94188 0.18949 -0.2774
-0.29495 0.0011795 0.26661 0.91287 -0.16405 -0.37384
-0.30377 -0.0041169 0.24837 0.92667 0.021062 -0.37528
-0.30919 0.016052 0.2307 0.89897 -0.17336 -0.40224
-0.22665 -0.074923 0.21185 -0.10092 0.94507 0.3109
-0.25078 -0.074836 0.21972 0.27234 0.9406 0.20273
-0.25669 -0.075906 0.23482 0.37299 0.92529 0.068722
-0.33098 0.015729 -0.1482 -0.55876 0.81043 0.17604
-0.3784 0.025548 -0.1234 0.82453 0.55255 -0.12183
-0.38565 0.041364 -0.13496 0.97779 0.17714 -0.11206
-0.36656 0.014758 -0.16187 0.39822 0.86761 0.29778
0.0025614 0.098892 0.16024 0.10625 -0.97651 -0.18745
-0.013749 0.10098 0.15874 -0.080124 -0.98786 -0.13306
-0.022915 0.10435 0.14013 0.026058 -0.98975 -0.14044
-0.034179 0.099859 0.16324 0.12482 -0.98676 -0.10353
-0.058579 0.092826 0.169 0.34846 -0.92592 -0.14578
-0.040458 0.098118 0.19328 0.2313 -0.97285 0.007491
-0.042089 0.10028 0.23308 0.23115 -0.96597 0.11608
-0.019945 0.10184 0.21515 0.11026 -0.99064 0.080455
0.0019716 0.10607 0.23312 0.00014726 -0.99548 0.094996
-0.0027413 0.10161 0.19237 0.031942 -0.99357 0.10866
0.0036695 0.097903 0.16598 0.12225 -0.99246 -0.0090653
0.046332 0.027552 0.58543 -0.56128 -0.20856 0.80092
0.024076 0.049877 0.58626 -0.30241 -0.93032 0.20748
0.025216 0.031372 0.57382 -0.32614 -0.1135 0.93848
0.00064982 0.026892 0.56969 -0.0038606 0.23103 0.97294
0.03537 0.14669 0.70484 -0.4246 -0.89139 0.15857
0.028381 0.15059 0.72784 -0.32469 -0.94363 -0.064363
0.045411 0.14269 0.72677 -0.49849 -0.86553 -0.048647
0.010256 0.15454 0.72818 -0.10689 -0.99127 -0.077177
0.020609 0.14808 0.75389 -0.21985 -0.93771 -0.26901
0.011136 0.1398 0.77859 -0.11089 -0.87312 -0.47473
0.032269 0.13565 0.77603 -0.33233 -0.8333 -0.44178
0.043924 0.11919 0.79189 -0.43276 -0.70416 -0.56292
0.051484 0.1274 0.77187 -0.53305 -0.7574 -0.37709
0.068582 0.11549 0.76476 -0.70659 -0.64582 -0.28922
0.057068 0.13167 0.74879 -0.60154 -0.77515 -0.19314
0.060925 0.13188 0.72656 -0.65169 -0.75774 -0.033526
0.074639 0.1176 0.72529 -0.76874 -0.63893 -0.02833
0.063478 0.12854 0.7078 -0.66769 -0.7343 0.12248
0.063819 0.12454 0.6938 -0.66558 -0.69747 0.26561
0.051195 0.13334 0.69123 -0.535 -0.78479 0.31287
