0.064769 0.13058 -0.18102 -0.4955 -0.40661 0.76756
-0.087151 0.13879 -0.17989 0.53528 0.20837 0.81857
-0.098277 0.22471 -0.18227 0.45753 -0.021319 0.88894
0.12001 0.21585 -0.17004 -0.87438 -0.053625 0.48227
0.060991 0.2904 -0.17954 -0.37211 -0.6707 0.64164
0.084396 0.32678 -0.18153 -0.53782 0.055645 0.84122
0.095085 0.34556 -0.17583 -0.65289 0.32136 0.6859
0.10562 0.36257 -0.17378 -0.70728 0.33876 0.62049
-0.1261 0.36664 -0.17767 0.63326 0.21553 0.74332
-0.12799 0.38093 -0.17978 0.63053 0.17969 0.75508
0.11531 0.37541 -0.16838 -0.77783 0.30398 0.55008
0.13005 0.40551 -0.16547 -0.85768 0.39106 0.33386
-0.14028 0.43017 -0.17521 0.77938 0.0002322 0.62655
-0.14093 0.44532 -0.17365 0.80846 -0.077072 0.58348
0.13897 0.42585 -0.16464 -0.90107 0.3234 0.28894
0.14427 0.43661 -0.15618 -0.948 0.22392 0.2262
0.14656 0.45598 -0.164 -0.94961 0.16308 0.26767
-0.13139 0.48057 -0.17756 0.81399 -0.21803 0.5384
0.14883 0.47701 -0.16015 -0.98914 0.046545 0.13941
0.14896 0.49435 -0.15253 -0.99519 -0.092773 0.031423
-0.12741 0.51675 -0.16396 0.84959 -0.32852 0.41264
-0.10518 0.56287 -0.1656 0.84355 -0.46845 0.26262
0.11966 0.58087 -0.15026 -0.85485 -0.51693 0.044907
-0.078743 0.60081 -0.16409 0.737 -0.66433 0.12449
-0.068908 0.61155 -0.15937 0.68412 -0.72049 0.11347
0.10088 0.60113 -0.16293 -0.75697 -0.61089 0.23197
0.08776 0.61703 -0.16002 -0.67418 -0.67722 0.29472
-0.038711 0.6334 -0.16616 0.48078 -0.85716 0.18472
0.076699 0.62748 -0.16087 -0.60185 -0.73486 0.31267
0.091348 -0.92214 -0.11802 -0.064783 -0.15956 -0.98506
0.065691 -0.8419 -0.11831 -0.10545 -0.26592 -0.95821
0.038907 -0.79579 -0.11888 0.22947 0.010859 -0.97326
0.060056 -0.77497 -0.11768 0.059635 -0.027329 -0.99785
0.017417 -0.68829 -0.13278 0.74209 0.15467 -0.65221
0.019453 -0.67485 -0.12649 0.71732 0.15026 -0.68035
0.0080354 -0.63055 -0.13033 0.81455 0.16129 -0.55722
0.13582 -0.63744 -0.1257 -0.77045 0.21395 -0.60053
0.14418 -0.61171 -0.12931 -0.79555 0.11631 -0.59462
0.1455 -0.59764 -0.12914 -0.81879 0.056553 -0.57129
-0.0016026 -0.58566 -0.13589 0.84745 0.095824 -0.52215
0.14536 -0.58366 -0.12793 -0.80029 0.029151 -0.59891
-0.00050282 -0.57264 -0.13169 0.83143 0.10038 -0.54649
-0.0011323 -0.55898 -0.13026 0.82541 0.088645 -0.55753
0.14541 -0.56513 -0.12731 -0.79294 -0.003949 -0.60928
0.14543 -0.54645 -0.12802 -0.80242 -0.041919 -0.59528
0.14486 -0.53228 -0.12851 -0.79864 -0.075637 -0.59704
-0.0097828 -0.52321 -0.13543 0.79563 0.20671 -0.56943
0.14205 -0.48199 -0.13288 -0.86692 -0.14409 -0.47717
-0.052769 -0.45595 -0.13437 0.78618 0.54378 -0.29364
0.12856 -0.43369 -0.12924 -0.89725 -0.14622 -0.41661
-0.067331 -0.43655 -0.15252 0.92046 0.3896 0.031205
0.12931 -0.42424 -0.13187 -0.93777 -0.022642 -0.34652
-0.073901 -0.41819 -0.15586 0.92421 0.35618 0.13774
0.12996 -0.40571 -0.13472 -0.96335 -0.03803 -0.26553
0.12748 -0.37302 -0.14121 -0.99108 -0.1221 -0.053369
0.12641 -0.36117 -0.1422 -0.99668 -0.078812 -0.020374
0.12294 -0.33279 -0.14609 -0.98409 -0.13936 0.11021
0.12051 -0.31789 -0.1516 -0.97372 -0.059665 0.21979
-0.11349 -0.30991 -0.15163 0.95457 0.25889 0.14755
0.11859 -0.30037 -0.15589 -0.95528 -0.058909 0.28978
-0.11684 -0.29234 -0.15742 0.94646 0.25783 0.19425
0.11937 -0.28877 -0.14875 -0.97695 -0.080275 0.1978
-0.12237 -0.27457 -0.15535 0.94751 0.2505 0.19867
-0.12615 -0.25884 -0.15769 0.95023 0.23707 0.20212
0.11194 -0.23932 -0.15188 -0.93806 -0.18744 0.2914
-0.13083 -0.24294 -0.15226 0.96097 0.21933 0.16859
-0.13353 -0.22893 -0.1528 0.9637 0.19072 0.18683
0.10517 -0.19635 -0.15174 -0.93271 -0.16458 0.32087
0.10009 -0.18308 -0.15821 -0.91482 -0.16838 0.36708
-0.14225 -0.12914 -0.164 0.91319 0.0070442 0.40748
-0.14498 -0.1171 -0.15711 0.94535 -0.041816 0.32338
0.099762 -0.10326 -0.1597 -0.90421 0.094361 0.41654
0.10244 -0.091826 -0.15587 -0.89578 0.15188 0.41774
0.10256 -0.080956 -0.15935 -0.81757 0.15301 0.55512
-0.13732 -0.062358 -0.16428 0.90344 -0.10594 0.41541
-0.13527 -0.044826 -0.1642 0.88916 -0.099234 0.44672
-0.13292 -0.032165 -0.16607 0.88314 -0.082779 0.46175
-0.12714 0.017783 -0.16604 0.86496 -0.12433 0.48619
0.094076 0.013881 -0.17155 -0.58621 -0.03102 0.80956
-0.12476 0.034992 -0.16598 0.86633 -0.12876 0.48259
0.094593 0.028316 -0.17097 -0.6066 0.069328 0.79198
-0.11509 0.076318 -0.16868 0.78002 -0.19076 0.59597
-0.11368 0.089374 -0.16576 0.76901 -0.21177 0.60314
0.096366 0.08683 -0.16918 -0.6707 -0.080566 0.73734
0.096245 0.10324 -0.16652 -0.70041 -0.21128 0.68175
0.087824 0.11969 -0.16817 -0.65205 -0.34129 0.67701
0.099296 0.17475 -0.1597 -0.77008 0.45393 0.44824
-0.10903 0.19875 -0.17307 0.56837 0.11343 0.81492
0.12178 0.19651 -0.159 -0.83368 0.38744 0.39353
0.09176 0.25442 -0.15081 -0.82318 -0.41789 0.38438
-0.12629 0.34812 -0.17048 0.60225 0.25775 0.75555
0.10668 0.34346 -0.16198 -0.68949 0.11339 0.71536
0.1091 0.35495 -0.16564 -0.72545 0.31155 0.61373
-0.13835 0.38132 -0.17058 0.66618 0.16669 0.72693
0.12385 0.3865 -0.16154 -0.83027 0.28643 0.47812
0.13175 0.40026 -0.15451 -0.87597 0.27745 0.39458
0.13758 0.41554 -0.15553 -0.90883 0.33388 0.2501
-0.14299 0.46154 -0.16729 0.82283 -0.16833 0.54279
-0.13983 0.4746 -0.16711 0.82687 -0.24518 0.50614
0.14931 0.45683 -0.14773 -0.98914 0.10539 0.10244
-0.13538 0.49324 -0.16493 0.83741 -0.27431 0.47276
0.15035 0.47876 -0.14628 -0.9986 -0.011499 0.051663
0.14596 0.51163 -0.1417 -0.97244 -0.23017 -0.037104
-0.12182 0.53153 -0.16256 0.85222 -0.37648 0.36329
-0.11463 0.54839 -0.16172 0.84805 -0.42517 0.3163
0.13468 0.54649 -0.14165 -0.92865 -0.36894 -0.038657
-0.11096 0.55903 -0.1552 0.82722 -0.49464 0.26654
0.12998 0.55827 -0.14209 -0.90979 -0.41397 -0.030115
-0.097346 0.57904 -0.15762 0.80525 -0.55638 0.20495
-0.087766 0.59181 -0.15674 0.75642 -0.63113 0.17177
0.10717 0.59568 -0.1514 -0.80083 -0.5768 0.16114
0.065831 0.63778 -0.15343 -0.51014 -0.76897 0.38527
0.020785 -0.63202 -0.11641 0.66827 0.18662 -0.72013
0.13147 -0.60688 -0.11485 -0.64194 0.072217 -0.76335
0.010268 -0.59443 -0.11994 0.76262 0.095553 -0.63975
0.13246 -0.59265 -0.11488 -0.65933 0.036257 -0.75098
0.0096469 -0.57577 -0.11884 0.75864 0.079948 -0.64659
0.13179 -0.57427 -0.11424 -0.63569 0.0083087 -0.7719
0.13198 -0.55622 -0.11414 -0.6368 -0.0086834 -0.77098
0.13183 -0.53768 -0.11469 -0.64534 -0.042052 -0.76274
0.13211 -0.52374 -0.1159 -0.67185 -0.067998 -0.73756
0.0043031 -0.51894 -0.11743 0.6637 0.20661 -0.7189
-0.0058831 -0.49552 -0.11802 0.67654 0.32702 -0.65982
-0.0088779 -0.48953 -0.11894 0.5117 0.55054 -0.6596
0.12729 -0.46482 -0.11798 -0.76741 -0.13179 -0.62747
-0.041876 -0.46772 -0.12719 0.74043 0.52403 -0.4209
-0.060982 -0.43913 -0.12688 0.82745 0.45521 -0.32882
-0.070973 -0.42114 -0.12995 0.86263 0.45174 -0.2276
-0.079055 -0.4054 -0.14252 0.92807 0.37228 -0.0099632
0.12775 -0.38725 -0.13256 -0.97689 -0.086395 -0.19551
-0.091704 -0.37422 -0.14339 0.93309 0.35914 0.01918
-0.096818 -0.36114 -0.14362 0.93297 0.35893 0.026998
0.12523 -0.34743 -0.13716 -0.99427 -0.098215 -0.042257
-0.10213 -0.3472 -0.1443 0.93846 0.34182 0.049413
-0.10827 -0.32944 -0.14475 0.94243 0.3301 0.053433
0.12219 -0.31234 -0.1354 -0.99865 -0.025532 0.045285
-0.11867 -0.29392 -0.13949 0.9593 0.28016 0.035419
0.11923 -0.2775 -0.14372 -0.98013 -0.090534 0.17651
0.11763 -0.26424 -0.145 -0.97119 -0.094017 0.219
0.11608 -0.24867 -0.14507 -0.95943 -0.1746 0.22137
0.11217 -0.22728 -0.14349 -0.96103 -0.15282 0.23038
-0.1373 -0.21965 -0.14188 0.97249 0.20254 0.11507
0.11052 -0.21248 -0.14096 -0.96318 -0.1385 0.23044
-0.1399 -0.20662 -0.14158 0.97845 0.17774 0.10512
-0.14095 -0.19271 -0.14918 0.96516 0.15292 0.21233
0.10472 -0.18258 -0.14479 -0.94995 -0.16843 0.2631
-0.1436 -0.1752 -0.14996 0.95961 0.1519 0.23681
0.10186 -0.17076 -0.14735 -0.94441 -0.14038 0.29728
-0.14589 -0.16037 -0.14902 0.96707 0.098051 0.23485
0.10168 -0.15945 -0.14208 -0.9602 -0.078763 0.26799
-0.1467 -0.14599 -0.14959 0.97161 0.048859 0.23149
0.10161 -0.14513 -0.14193 -0.96443 0.028463 0.2628
-0.14856 -0.12693 -0.14436 0.98023 0.0066039 0.19777
0.10078 -0.12944 -0.14809 -0.94245 0.090016 0.322
-0.14816 -0.11208 -0.1438 0.98255 -0.050103 0.17914
0.10386 -0.11783 -0.14431 -0.94043 0.12986 0.31422
-0.14598 -0.098307 -0.15013 0.96162 -0.070602 0.26516
0.10508 -0.10461 -0.145 -0.9475 0.10693 0.30134
-0.14419 -0.080674 -0.15162 0.95629 -0.07452 0.28275
0.10799 -0.071578 -0.15608 -0.77146 0.20494 0.60237
-0.14284 -0.054026 -0.14724 0.95207 -0.084917 0.29385
-0.14114 -0.0368 -0.14776 0.94751 -0.074422 0.31094
-0.13716 -0.018997 -0.15469 0.91673 -0.086516 0.39002
-0.13509 -0.00079921 -0.15479 0.91104 -0.10509 0.39869
-0.13572 0.016714 -0.14794 0.91108 -0.10257 0.39926
-0.12742 0.04809 -0.15729 0.86749 -0.12457 0.4816
-0.12466 0.061492 -0.1586 0.84389 -0.13505 0.51924
0.10739 0.087444 -0.15856 -0.73388 -0.14372 0.6639
-0.11386 0.10432 -0.16067 0.74397 -0.24701 0.62089
0.098495 0.12055 -0.15609 -0.72367 -0.37936 0.57653
0.10727 0.17763 -0.15505 -0.77733 0.23276 0.58445
0.11229 0.30683 -0.15424 -0.79074 0.31117 0.52717
0.11974 0.32722 -0.15209 -0.78851 0.069966 0.61103
-0.14532 0.36884 -0.16097 0.65703 0.154 0.73797
0.12624 0.36939 -0.14969 -0.82604 0.27201 0.49363
-0.14858 0.3826 -0.16142 0.70696 0.12415 0.69628
0.12733 0.38299 -0.15355 -0.8273 0.22692 0.51389
-0.15193 0.43674 -0.15894 0.82819 -0.07256 0.55573
0.14211 0.41903 -0.14128 -0.94361 0.22601 0.24191
-0.15127 0.45176 -0.15748 0.84087 -0.13464 0.52423
0.14738 0.43867 -0.13744 -0.98135 0.15541 0.11313
-0.1459 0.48294 -0.15198 0.84124 -0.29711 0.4517
-0.14181 0.49787 -0.14947 0.85115 -0.32173 0.41477
0.14983 0.4908 -0.13396 -0.99215 -0.12502 -0.0029088
-0.1347 0.50987 -0.15435 0.85149 -0.34538 0.39456
-0.12705 0.53485 -0.14567 0.85016 -0.42152 0.31552
0.13937 0.53249 -0.13755 -0.95079 -0.30845 -0.029238
-0.11926 0.54937 -0.14703 0.83765 -0.46494 0.28666
-0.10348 0.57422 -0.14764 0.7976 -0.55254 0.24193
0.12493 0.56583 -0.13362 -0.90318 -0.42903 -0.014235
0.11926 0.57839 -0.13188 -0.89358 -0.44881 0.0087487
0.10068 0.60935 -0.14513 -0.79029 -0.58996 0.16547
0.046669 0.64895 -0.15358 -0.33247 -0.83287 0.44248
0.034314 -0.62217 -0.10382 0.50662 0.14722 -0.84951
0.023317 -0.5836 -0.10574 0.60089 0.062489 -0.79689
0.11241 -0.5654 -0.10071 -0.469 0.0050144 -0.88319
0.11234 -0.54714 -0.1006 -0.46537 -0.020121 -0.88489
0.017179 -0.51061 -0.10546 0.52818 0.21883 -0.82045
-0.0055384 -0.4826 -0.10949 0.40238 0.61134 -0.68144
0.11686 -0.46826 -0.10654 -0.70374 -0.017328 -0.71025
0.11808 -0.45354 -0.1089 -0.76447 -0.069492 -0.6409
0.1166 -0.44257 -0.10801 -0.82524 0.003665 -0.56477
0.11975 -0.42709 -0.11142 -0.89475 0.07221 -0.44069
0.12232 -0.41441 -0.11445 -0.91843 0.088198 -0.38562
-0.076812 -0.40686 -0.12348 0.88342 0.4209 -0.20594
0.12338 -0.39874 -0.11582 -0.94559 0.0043592 -0.32534
0.12375 -0.37963 -0.11879 -0.97072 -0.048084 -0.23537
0.12323 -0.36241 -0.11947 -0.97942 -0.037238 -0.19837
0.12205 -0.3295 -0.12226 -0.99422 -0.038199 -0.10036
-0.10959 -0.32491 -0.12694 0.93922 0.32524 -0.10994
-0.11426 -0.31005 -0.13275 0.96366 0.26366 -0.042975
0.12208 -0.30164 -0.12338 -0.99787 -0.016556 -0.063138
0.12163 -0.28745 -0.12533 -0.99868 -0.051244 0.0018776
-0.12445 -0.27492 -0.13322 0.96469 0.26194 -0.027449
0.12081 -0.2741 -0.12515 -0.99832 -0.057785 -0.0042569
-0.12877 -0.25605 -0.13376 0.96971 0.24409 -0.009382
0.11931 -0.25444 -0.12714 -0.98979 -0.12828 0.06219
0.11641 -0.24018 -0.13425 -0.97434 -0.16515 0.15291
-0.13323 -0.23931 -0.13457 0.96952 0.24437 0.017623
0.11479 -0.22441 -0.12784 -0.98734 -0.1063 0.11771
0.11127 -0.20127 -0.1307 -0.97252 -0.14647 0.18097
0.10922 -0.18745 -0.12974 -0.97434 -0.16873 0.14898
0.10615 -0.17206 -0.13103 -0.97058 -0.13279 0.20083
0.10469 -0.13205 -0.13248 -0.97005 0.11902 0.21176
0.10794 -0.10265 -0.13532 -0.91612 0.22044 0.33485
-0.14807 -0.081157 -0.13339 0.99055 -0.057561 0.12448
0.10823 -0.093277 -0.14324 -0.82951 0.33164 0.44936
-0.14604 -0.067328 -0.1393 0.97467 -0.08004 0.20885
0.11317 -0.07875 -0.14567 -0.79034 0.30069 0.53381
0.11994 -0.067386 -0.1408 -0.81339 0.21424 0.54084
-0.14184 -0.010634 -0.13934 0.94389 -0.069615 0.32284
-0.13984 0.007379 -0.14031 0.93091 -0.085367 0.35513
-0.13377 0.033695 -0.14802 0.89547 -0.085535 0.43683
0.12763 0.040083 -0.14207 -0.79155 -0.0061178 0.61107
0.11785 0.079466 -0.14786 -0.78762 -0.15649 0.59596
-0.12424 0.093324 -0.15018 0.80393 -0.17296 0.56902
0.11928 0.10078 -0.13676 -0.83397 -0.2789 0.47615
-0.12253 0.1059 -0.1484 0.77353 -0.17317 0.60964
0.10079 0.1325 -0.14217 -0.75115 -0.4602 0.47327
-0.11941 0.13216 -0.1513 0.68139 0.11689 0.72253
0.09111 0.14104 -0.14566 -0.7851 -0.31184 0.53514
0.091026 0.13783 -0.14694 -0.78456 0.21641 0.58106
-0.11964 0.14441 -0.15342 0.63763 0.1707 0.75119
-0.13998 0.18237 -0.14823 0.76576 0.22045 0.60416
0.11809 0.1791 -0.13769 -0.85282 0.33635 0.39945
-0.142 0.20229 -0.15047 0.7699 0.14149 0.62229
0.12968 0.19622 -0.14056 -0.82427 0.43419 0.36339
0.10412 0.24839 -0.13498 -0.65746 -0.67833 0.32804
0.099447 0.24819 -0.14268 -0.77717 -0.44188 0.44805
-0.14777 0.24633 -0.15138 0.72134 0.13515 0.67927
-0.14925 0.26641 -0.15155 0.74292 0.050426 0.66748
0.095132 0.25266 -0.14555 -0.86369 0.22978 0.44859
-0.14853 0.28333 -0.1536 0.68386 0.071104 0.72614
0.1083 0.28045 -0.13629 -0.92354 0.31339 0.22106
0.12321 0.35579 -0.14616 -0.82314 0.14082 0.55011
-0.1573 0.36657 -0.14931 0.76075 0.073917 0.64482
-0.15826 0.37883 -0.15042 0.75975 0.10369 0.64189
0.13294 0.37951 -0.14376 -0.853 0.22707 0.46993
-0.15871 0.39893 -0.15156 0.78618 0.01841 0.61772
0.13876 0.3898 -0.13673 -0.89404 0.17655 0.41173
0.14137 0.4038 -0.13521 -0.93014 0.14286 0.33827
-0.15878 0.41815 -0.15088 0.82538 -0.037571 0.56332
-0.16048 0.43326 -0.14606 0.85558 -0.10289 0.50735
-0.15383 0.48096 -0.13697 0.868 -0.30648 0.39071
0.15033 0.46 -0.13054 -0.99804 0.055202 0.029395
0.15052 0.47678 -0.12427 -0.9991 -0.034139 -0.02536
-0.13463 0.52056 -0.1438 0.85524 -0.38876 0.34269
0.14581 0.5119 -0.12562 -0.97086 -0.23938 0.011428
0.13925 0.53305 -0.12575 -0.94532 -0.32577 0.015887
-0.11283 0.56423 -0.13938 0.81504 -0.5148 0.26588
-0.085957 0.59908 -0.1396 0.72622 -0.65128 0.22007
-0.076138 0.6092 -0.14021 0.68575 -0.69213 0.22516
-0.065651 0.61908 -0.14021 0.6342 -0.73574 0.23763
0.1034 0.60667 -0.1281 -0.82225 -0.56127 0.094273
0.047692 0.65708 -0.13791 -0.35796 -0.83737 0.41313
0.019381 -0.48676 -0.095515 0.42602 0.34206 -0.83756
0.10348 -0.47592 -0.095233 -0.55839 0.092067 -0.82446
0.10681 -0.46189 -0.096525 -0.654 0.062778 -0.75388
-0.034999 -0.44543 -0.10081 0.5021 0.54132 -0.67444
-0.047666 -0.43535 -0.10409 0.63605 0.52072 -0.56947
-0.059199 -0.42766 -0.11171 0.73264 0.52286 -0.43573
-0.082095 -0.39182 -0.11804 0.89803 0.35935 -0.2538
-0.087678 -0.37637 -0.11804 0.90886 0.35033 -0.22635
-0.093183 -0.36331 -0.11878 0.90082 0.37644 -0.21639
-0.099882 -0.34732 -0.11965 0.91877 0.34788 -0.18666
-0.10444 -0.33482 -0.11993 0.91634 0.35862 -0.17809
-0.10788 -0.32049 -0.11228 0.91351 0.2981 -0.27683
0.1211 -0.31967 -0.11653 -0.9894 -0.00040038 -0.14523
-0.11275 -0.30514 -0.11331 0.93576 0.24605 -0.25261
-0.11724 -0.29276 -0.1196 0.94088 0.27065 -0.20372
-0.12466 -0.26581 -0.11573 0.95266 0.25073 -0.172
-0.1319 -0.23937 -0.11344 0.95323 0.24622 -0.17526
0.11689 -0.23691 -0.11581 -0.99148 -0.12813 -0.023271
-0.13756 -0.22047 -0.12339 0.97368 0.2191 -0.062837
0.11466 -0.21611 -0.12012 -0.98952 -0.11162 0.091587
-0.14125 -0.20252 -0.12428 0.98171 0.18749 -0.033069
-0.14399 -0.18962 -0.12513 0.98062 0.19587 -0.0047862
-0.1468 -0.17512 -0.12554 0.98717 0.15945 0.0087733
-0.14921 -0.15592 -0.12607 0.99504 0.095951 0.02638
0.10627 -0.15938 -0.12075 -0.98878 -0.082059 0.12483
-0.1502 -0.13887 -0.12618 0.99878 0.039086 0.030099
0.10572 -0.14542 -0.12095 -0.99083 0.038167 0.12962
-0.15059 -0.12699 -0.11937 0.99868 0.0084251 -0.05076
-0.15026 -0.11473 -0.12702 0.99771 -0.034667 0.058084
-0.1497 -0.099278 -0.12704 0.99754 -0.038235 0.058758
0.10997 -0.11445 -0.12214 -0.96645 0.17504 0.18798
0.1176 -0.087808 -0.13221 -0.80221 0.41949 0.42484
-0.14667 -0.05478 -0.13031 0.98315 -0.047041 0.17664
0.12883 -0.058095 -0.13031 -0.84683 0.19687 0.49408
-0.1454 -0.041975 -0.13299 0.97334 -0.048088 0.22429
0.12715 -0.043125 -0.13728 -0.82191 0.12067 0.55669
-0.14464 -0.029087 -0.13367 0.96351 -0.039193 0.26478
-0.13657 0.050509 -0.13958 0.8776 -0.078486 0.47293
-0.13465 0.068898 -0.14013 0.85025 -0.089595 0.5187
0.12825 0.061399 -0.13727 -0.84017 -0.13599 0.525
-0.13119 0.083231 -0.14257 0.82598 -0.12887 0.54877
0.1285 0.081666 -0.12988 -0.86685 -0.2113 0.45158
0.11376 0.11811 -0.13345 -0.80801 -0.41444 0.41875
0.10976 0.13014 -0.12701 -0.80857 -0.46991 0.35413
0.10062 0.13998 -0.13168 -0.86281 -0.12016 0.49104
0.10736 0.1521 -0.1314 -0.86758 0.3528 0.35048
-0.14935 0.19412 -0.12964 0.94881 0.12142 0.29159
-0.15106 0.22146 -0.13895 0.89512 0.081653 0.43828
0.11923 0.24353 -0.12389 -0.55951 -0.79863 0.22166
-0.15228 0.23442 -0.1396 0.86264 0.16658 0.4776
0.10746 0.24466 -0.13544 -0.78775 -0.10149 0.60757
-0.15884 0.25591 -0.12921 0.95463 0.10829 0.27742
0.10857 0.27969 -0.13394 -0.83731 0.19263 0.51167
-0.16001 0.30024 -0.14039 0.84301 0.092094 0.52996
-0.16549 0.31882 -0.13458 0.8879 0.057442 0.45644
0.13151 0.32562 -0.12894 -0.90127 0.11048 0.41894
0.13879 0.37586 -0.12828 -0.90219 0.20171 0.38128
-0.169 0.38989 -0.13682 0.85987 0.027204 0.50979
-0.16877 0.40926 -0.13622 0.86081 -0.054379 0.50601
0.14534 0.41769 -0.12897 -0.95499 0.12395 0.2695
-0.16224 0.44894 -0.13874 0.87402 -0.16979 0.45525
0.1485 0.43174 -0.12273 -0.97686 0.093986 0.19213
0.14967 0.44577 -0.12046 -0.99144 0.064703 0.11337
-0.15831 0.46673 -0.13726 0.88012 -0.2603 0.39702
0.15031 0.46012 -0.1206 -0.99888 -0.00087197 0.047382
-0.14865 0.498 -0.13378 0.86308 -0.35917 0.35508
0.1484 0.49751 -0.11509 -0.99102 -0.12513 -0.047053
-0.14128 0.51229 -0.13645 0.85538 -0.38692 0.34442
-0.13361 0.53096 -0.13344 0.85326 -0.42283 0.30523
-0.1192 0.55946 -0.12908 0.8162 -0.50917 0.27305
0.12654 0.56493 -0.11773 -0.91603 -0.39904 0.040734
-0.093501 0.59442 -0.12875 0.73994 -0.61956 0.26198
0.12015 0.5796 -0.11886 -0.90273 -0.42297 0.078624
0.10023 0.61298 -0.12201 -0.80896 -0.56224 0.17166
-0.056464 0.62866 -0.13395 0.59924 -0.74518 0.29261
-0.040618 0.63911 -0.13807 0.54749 -0.7643 0.34072
-0.0056608 -0.45176 -0.088979 0.40736 0.47852 -0.77787
0.10765 -0.42557 -0.089069 -0.78992 0.16782 -0.58981
-0.046092 -0.42864 -0.094488 0.57654 0.56394 -0.59124
-0.060793 -0.418 -0.10133 0.69706 0.50225 -0.51172
0.11245 -0.41198 -0.091921 -0.83474 0.1395 -0.53269
-0.068861 -0.40219 -0.098623 0.76706 0.39849 -0.50282
0.11847 -0.39065 -0.10079 -0.92552 0.026788 -0.37775
-0.079866 -0.37381 -0.097638 0.80692 0.37367 -0.45744
0.1188 -0.37167 -0.10133 -0.93289 -0.021227 -0.35953
-0.090125 -0.35634 -0.10086 0.84139 0.37483 -0.38932
0.11846 -0.35425 -0.10202 -0.94149 -0.017125 -0.33659
0.11853 -0.34088 -0.10294 -0.95177 -0.024334 -0.30584
-0.097192 -0.33798 -0.10037 0.86511 0.31527 -0.39011
0.11832 -0.32837 -0.10368 -0.95961 -0.0026455 -0.28131
-0.10662 -0.30973 -0.10022 0.88266 0.25253 -0.39642
0.11863 -0.31132 -0.10431 -0.96541 0.013669 -0.26038
0.11933 -0.29318 -0.10583 -0.97774 -0.0064802 -0.20971
0.11922 -0.27985 -0.10606 -0.97931 -0.012156 -0.20199
0.1191 -0.26586 -0.10751 -0.98733 -0.040101 -0.15353
0.11828 -0.25057 -0.10798 -0.98418 -0.1111 -0.13801
-0.12736 -0.25385 -0.11179 0.94083 0.28175 -0.18831
0.11533 -0.22355 -0.10578 -0.9951 -0.06485 -0.074633
-0.13737 -0.21212 -0.10764 0.96187 0.22107 -0.16105
0.11346 -0.20193 -0.10788 -0.99222 -0.12444 0.0047474
0.11143 -0.18812 -0.10852 -0.98887 -0.14643 0.026271
0.10854 -0.17479 -0.11786 -0.98122 -0.15232 0.11837
-0.14865 -0.15099 -0.10833 0.98894 0.077658 -0.12639
0.10815 -0.13051 -0.1128 -0.9874 0.12592 0.095838
-0.1493 -0.086384 -0.1166 0.99956 -0.029537 0.0031088
-0.14874 -0.073041 -0.11843 0.9973 -0.035782 0.064111
0.13605 -0.04856 -0.12071 -0.88761 0.16221 0.4311
0.13808 -0.03388 -0.12129 -0.88481 0.12057 0.45008
-0.1466 -0.016219 -0.12522 0.95678 -0.027032 0.28956
0.13963 -0.016821 -0.12144 -0.87925 0.06355 0.47211
-0.14588 -0.0026794 -0.12575 0.94446 -0.042418 0.32588
0.13653 -0.0043757 -0.12788 -0.84253 0.014124 0.53846
-0.14501 0.010589 -0.12648 0.92984 -0.046193 0.36505
-0.14312 0.023731 -0.12947 0.91359 -0.04574 0.40406
0.13639 0.014122 -0.12779 -0.84139 -0.017785 0.54013
-0.14297 0.040959 -0.1282 0.89619 -0.035323 0.44226
0.1397 0.032013 -0.12149 -0.88198 -0.029454 0.47036
-0.14299 0.058273 -0.12705 0.87419 -0.027762 0.48479
0.13865 0.052139 -0.12086 -0.89544 -0.11568 0.42988
0.13376 0.066875 -0.12536 -0.88145 -0.16832 0.44127
0.12956 0.097422 -0.11763 -0.87841 -0.30956 0.3641
0.10947 0.14265 -0.12293 -0.8355 0.2757 0.47532
-0.13965 0.15892 -0.13471 0.79297 0.12541 0.59622
0.11347 0.15932 -0.11858 -0.95318 0.19148 0.23406
-0.14437 0.17207 -0.12769 0.84534 0.12571 0.51923
0.12329 0.17923 -0.11882 -0.85314 0.47145 0.22335
-0.15584 0.22926 -0.12219 0.93438 0.11941 0.33566
0.11617 0.24599 -0.1177 -0.71221 -0.59773 0.36806
0.11642 0.2582 -0.12826 -0.83255 0.03184 0.55303
-0.16135 0.2678 -0.12597 0.93808 0.14781 0.31329
0.1136 0.28203 -0.13072 -0.72287 0.11456 0.68142
-0.16715 0.29883 -0.12095 0.94551 0.13917 0.29434
-0.17104 0.31707 -0.11611 0.95893 0.1113 0.2609
-0.17082 0.35296 -0.12914 0.89452 0.088869 0.43811
-0.17157 0.37091 -0.12959 0.89467 0.074366 0.4405
-0.17557 0.38472 -0.12253 0.9363 0.053347 0.34713
-0.17576 0.39923 -0.12314 0.92999 0.008445 0.36748
0.14552 0.3954 -0.12039 -0.95159 0.1359 0.27571
-0.17476 0.41527 -0.12399 0.91421 -0.087801 0.39562
0.14916 0.41423 -0.11452 -0.97096 0.09268 0.22058
-0.17062 0.42958 -0.12858 0.89531 -0.12639 0.42714
-0.1697 0.44993 -0.12162 0.90285 -0.21691 0.37122
-0.16533 0.46452 -0.12308 0.8915 -0.26772 0.36544
0.1501 0.47193 -0.11218 -0.99851 -0.054616 0.0020957
-0.15404 0.49854 -0.11958 0.86825 -0.37808 0.32125
0.14911 0.48382 -0.10766 -0.99456 -0.10397 -0.0067058
-0.14687 0.51254 -0.12162 0.85688 -0.40667 0.31682
-0.13931 0.52639 -0.12317 0.85394 -0.42929 0.29412
0.14537 0.51602 -0.11069 -0.97191 -0.23046 -0.047647
0.14045 0.53107 -0.10644 -0.94653 -0.31971 -0.04313
-0.12809 0.54974 -0.12019 0.83648 -0.47737 0.26909
-0.11428 0.56971 -0.1239 0.79186 -0.54394 0.27764
-0.10616 0.58308 -0.11944 0.75864 -0.57531 0.30576
0.11235 0.59707 -0.11147 -0.87215 -0.47314 0.12448
0.081583 0.637 -0.12205 -0.71584 -0.67335 0.18485
0.02818 -0.46353 -0.078684 0.29589 0.50251 -0.81236
-0.011123 -0.43103 -0.076731 0.29176 0.50253 -0.81384
0.11079 -0.39629 -0.086301 -0.83773 0.068635 -0.54176
-0.057038 -0.39128 -0.081073 0.61063 0.34227 -0.71413
0.11154 -0.38164 -0.086662 -0.85639 0.01895 -0.51598
0.10757 -0.37271 -0.080065 -0.83957 0.013632 -0.54308
-0.075715 -0.36718 -0.08622 0.73059 0.38732 -0.56233
0.10952 -0.35513 -0.082609 -0.8554 0.01211 -0.51783
-0.086873 -0.34751 -0.088321 0.78337 0.32477 -0.52996
0.11014 -0.33786 -0.083378 -0.87127 0.021219 -0.49034
-0.098849 -0.32225 -0.093418 0.82648 0.28655 -0.48458
0.11141 -0.32048 -0.084898 -0.90022 0.026744 -0.43461
0.11309 -0.30753 -0.087948 -0.91483 0.033385 -0.40246
-0.10888 -0.29407 -0.095517 0.85627 0.30532 -0.41662
0.11375 -0.29408 -0.08812 -0.92339 0.023784 -0.38312
0.11443 -0.27632 -0.089039 -0.93887 0.016433 -0.34388
-0.11995 -0.26613 -0.099591 0.89586 0.26608 -0.35587
0.11497 -0.25682 -0.091149 -0.96101 -0.049071 -0.27213
-0.12726 -0.24372 -0.099115 0.91469 0.27231 -0.29864
0.11432 -0.2394 -0.092335 -0.9734 -0.045094 -0.22465
-0.1327 -0.22397 -0.10031 0.93747 0.24477 -0.24747
-0.13862 -0.20089 -0.10135 0.95227 0.21487 -0.2168
-0.14221 -0.18552 -0.1018 0.95847 0.20539 -0.19786
0.10949 -0.17528 -0.098541 -0.99061 -0.13597 -0.014055
-0.14576 -0.16621 -0.10207 0.97221 0.14594 -0.18307
0.10793 -0.16346 -0.098385 -0.99562 -0.091474 -0.019281
0.10743 -0.15237 -0.098845 -0.99974 -0.022619 -0.0039186
0.10768 -0.14192 -0.098451 -0.99756 0.067692 -0.017062
-0.14857 -0.13442 -0.10307 0.98717 0.037008 -0.15531
-0.14894 -0.11781 -0.10393 0.99192 -0.0053262 -0.12677
0.1088 -0.13068 -0.095464 -0.99038 0.13132 -0.043535
-0.14889 -0.10074 -0.10503 0.99587 0.010614 -0.090213
0.11163 -0.11528 -0.097494 -0.97796 0.20295 -0.048953
-0.14887 -0.083779 -0.10262 0.99926 0.029844 -0.024156
0.12413 -0.092939 -0.11274 -0.81874 0.48134 0.31301
-0.14923 -0.064263 -0.11036 0.99546 0.037081 0.087612
0.13062 -0.073356 -0.11834 -0.86452 0.32796 0.38086
-0.14946 -0.048411 -0.11331 0.98239 0.020252 0.18577
0.13916 -0.059545 -0.10795 -0.90952 0.24521 0.33562
-0.14938 -0.031012 -0.11545 0.96606 0.024978 0.25709
-0.15053 -0.012884 -0.11237 0.95365 0.00539 0.30088
-0.15004 0.00045529 -0.11358 0.94003 -0.00074286 0.3411
-0.14962 0.013656 -0.11478 0.92455 -0.0022745 0.38105
0.14271 0.0042671 -0.11682 -0.89332 0.018364 0.44905
0.14259 0.018641 -0.11686 -0.89249 -0.022263 0.45053
-0.14915 0.031333 -0.11578 0.91011 -0.006811 0.41431
0.13845 0.072612 -0.11259 -0.90777 -0.21205 0.36192
0.13449 0.087035 -0.11388 -0.90074 -0.25567 0.35113
-0.14114 0.10326 -0.12413 0.78431 -0.065687 0.61688
0.12925 0.10895 -0.10602 -0.87887 -0.39386 0.26918
-0.13841 0.11227 -0.12811 0.7629 0.072566 0.64243
0.12088 0.12451 -0.1069 -0.83056 -0.49347 0.25819
0.11262 0.13482 -0.10856 -0.86332 -0.38839 0.32225
0.10881 0.13507 -0.11507 -0.91947 0.043484 0.39074
-0.14994 0.1555 -0.12293 0.78343 0.093329 0.61444
0.11784 0.15568 -0.11896 -0.82664 0.087073 0.55596
-0.14921 0.17003 -0.12532 0.73847 0.047321 0.67262
0.11896 0.24262 -0.11881 -0.84893 -0.027763 0.52778
-0.16132 0.26044 -0.11948 0.92347 0.10334 0.36948
0.12285 0.25827 -0.11307 -0.87931 0.042855 0.47432
-0.16404 0.26838 -0.11521 0.90919 0.13096 0.39525
-0.1657 0.2816 -0.11749 0.93686 0.12877 0.32513
0.12667 0.27125 -0.11549 -0.85818 0.15249 0.49018
0.12798 0.28496 -0.11445 -0.82098 0.1631 0.54716
0.12602 0.29555 -0.11981 -0.79391 0.22571 0.56459
0.13855 0.31633 -0.1102 -0.91713 0.1406 0.37296
-0.17453 0.33515 -0.11032 0.96764 0.098061 0.23249
0.13865 0.33735 -0.10613 -0.97177 0.036728 0.23305
-0.17729 0.36189 -0.11104 0.96298 0.083624 0.25627
0.14135 0.35102 -0.10244 -0.97613 0.18378 0.11575
0.14542 0.36709 -0.10593 -0.9662 0.20272 0.15927
0.14826 0.38677 -0.10477 -0.97369 0.12237 0.19225
0.14949 0.4009 -0.10403 -0.98477 0.098964 0.14297
-0.17519 0.43998 -0.11352 0.92321 -0.18082 0.3391
0.15181 0.42718 -0.10142 -0.99628 0.026736 0.081943
0.15216 0.4427 -0.10591 -0.99614 0.02091 0.085264
-0.16591 0.47435 -0.11331 0.89325 -0.30315 0.33196
0.15165 0.46045 -0.098655 -0.99821 -0.058935 -0.010268
-0.16105 0.48772 -0.11283 0.88377 -0.34502 0.31608
0.14615 0.50141 -0.097589 -0.98225 -0.18187 -0.045794
-0.14355 0.52681 -0.10995 0.84937 -0.45041 0.27514
0.14333 0.51582 -0.097064 -0.97261 -0.22367 -0.063302
-0.12175 0.5638 -0.11351 0.81789 -0.50136 0.28231
0.12746 0.5641 -0.099139 -0.92851 -0.37127 0.0058685
0.12251 0.57651 -0.099925 -0.92634 -0.37533 0.032066
-0.095008 0.59822 -0.11691 0.7232 -0.60752 0.32849
0.10116 0.61751 -0.10345 -0.82757 -0.54108 0.14954
0.090445 0.63178 -0.10439 -0.77806 -0.60292 0.17637
-0.047163 0.64409 -0.12051 0.58473 -0.67296 0.45301
-0.033578 0.65289 -0.12437 0.48714 -0.70739 0.51215
-0.017238 0.66597 -0.11946 0.33822 -0.7743 0.53485
0.099946 -0.39301 -0.072277 -0.72385 0.10556 -0.68184
-0.054388 -0.37999 -0.072921 0.56011 0.40375 -0.72337
-0.065593 -0.36488 -0.07383 0.62928 0.37201 -0.68236
-0.076005 -0.34543 -0.073948 0.67826 0.29804 -0.67167
-0.087733 -0.33208 -0.081963 0.75573 0.26708 -0.59795
-0.098438 -0.30416 -0.082778 0.79266 0.27137 -0.54594
-0.10885 -0.28051 -0.084899 0.82866 0.30409 -0.46994
-0.11803 -0.25705 -0.08739 0.85223 0.32126 -0.4129
-0.11979 -0.24522 -0.08187 0.85641 0.29517 -0.42359
-0.12549 -0.23117 -0.085015 0.89379 0.25239 -0.37073
0.11092 -0.22522 -0.081774 -0.9598 -0.006075 -0.28063
-0.13019 -0.21277 -0.083936 0.90448 0.23682 -0.35472
0.11289 -0.21313 -0.090068 -0.98767 -0.043725 -0.15034
0.11056 -0.19164 -0.085599 -0.98289 -0.10233 -0.15312
-0.1386 -0.18089 -0.085247 0.92973 0.19711 -0.31104
-0.14121 -0.16621 -0.085036 0.93671 0.14633 -0.31808
-0.1453 -0.14702 -0.09119 0.96116 0.091503 -0.2604
-0.15092 -0.059761 -0.098351 0.98636 0.10622 0.12577
0.14442 -0.049136 -0.098919 -0.93759 0.1906 0.29087
0.14725 -0.034142 -0.099394 -0.94295 0.14474 0.29982
0.14929 -0.015435 -0.099661 -0.93785 0.090423 0.33506
0.14786 -0.000378 -0.10565 -0.92474 0.027033 0.37965
0.14786 0.014316 -0.1053 -0.92726 -0.024281 0.37362
-0.15065 0.0418 -0.11268 0.89549 0.009731 0.44498
0.14932 0.033098 -0.099743 -0.93988 -0.065631 0.33514
0.14812 0.047547 -0.099487 -0.95216 -0.10877 0.2856
-0.15019 0.056733 -0.11426 0.872 0.023571 0.48895
0.14386 0.063094 -0.10449 -0.92481 -0.18847 0.33047
-0.14969 0.074328 -0.11588 0.84588 0.021719 0.53294
-0.14831 0.090233 -0.11707 0.81421 -0.069934 0.57635
0.13697 0.094408 -0.099046 -0.91928 -0.31617 0.23443
-0.15015 0.1018 -0.11322 0.80602 -0.016878 0.59164
-0.14797 0.11874 -0.11726 0.80662 0.076165 0.58614
-0.14894 0.12765 -0.11744 0.80025 0.14445 0.582
0.12791 0.15892 -0.10255 -0.91581 0.032345 0.40031
-0.15666 0.18043 -0.1171 0.80828 0.066092 0.58507
0.12005 0.16881 -0.10139 -0.90875 0.35011 0.22716
-0.15823 0.1961 -0.11678 0.80321 0.055537 0.5931
0.13471 0.17923 -0.10041 -0.69455 0.69264 0.19454
0.12625 0.24073 -0.10385 -0.79033 -0.43456 0.43189
0.13087 0.24324 -0.10252 -0.90203 -0.05409 0.42828
-0.16992 0.28702 -0.10897 0.88688 0.094333 0.45226
-0.17045 0.30022 -0.11051 0.91796 0.092901 0.38565
0.13453 0.29221 -0.10729 -0.88024 0.21377 0.42365
-0.17341 0.31432 -0.10594 0.92345 0.061469 0.37876
-0.17482 0.3268 -0.10449 0.9401 0.08387 0.33042
-0.17632 0.34642 -0.10706 0.95889 0.08773 0.26986
0.14738 0.37095 -0.091355 -0.9747 0.22012 0.038719
-0.18103 0.39348 -0.10646 0.96034 0.053878 0.27359
-0.18109 0.40946 -0.1072 0.9558 -0.040414 0.29123
0.15144 0.41012 -0.097806 -0.99064 0.083961 0.10761
-0.17928 0.42457 -0.10921 0.94418 -0.10559 0.31205
0.15154 0.44478 -0.08983 -0.99876 -0.048304 -0.012101
-0.17106 0.46371 -0.10835 0.90838 -0.26666 0.32208
-0.16566 0.48451 -0.10302 0.89362 -0.34957 0.28149
0.15048 0.47186 -0.088551 -0.99374 -0.074086 -0.083623
-0.15918 0.49924 -0.10373 0.87801 -0.39122 0.27577
-0.15146 0.51369 -0.10658 0.8612 -0.4237 0.28073
-0.13612 0.54354 -0.10522 0.84637 -0.45838 0.27118
0.13867 0.53145 -0.08917 -0.95186 -0.30463 -0.034091
0.13438 0.54517 -0.093831 -0.9454 -0.32495 -0.024913
-0.12854 0.55834 -0.10327 0.83272 -0.47184 0.28974
-0.11439 0.57835 -0.10756 0.78913 -0.5299 0.3106
0.11679 0.59094 -0.096142 -0.91978 -0.38895 0.052117
-0.091501 0.60587 -0.11086 0.70287 -0.5925 0.39359
0.11191 0.60204 -0.092371 -0.887 -0.45577 0.074163
-0.083305 0.61496 -0.1112 0.67101 -0.6334 0.38542
-0.073962 0.62416 -0.11169 0.65248 -0.64271 0.40148
-0.06451 0.6326 -0.11303 0.63178 -0.63413 0.44579
-0.056263 0.63949 -0.11482 0.61233 -0.60892 0.50426
-0.046285 0.65097 -0.11284 0.55726 -0.61497 0.55791
-0.034541 0.66156 -0.11199 0.45432 -0.68649 0.56774
0.047255 0.67377 -0.10064 -0.47353 -0.79714 0.37462
0.08451 -0.38509 -0.057815 -0.52912 0.134 -0.8379
-0.074652 -0.31945 -0.063259 0.6224 0.28521 -0.72889
0.10082 -0.31725 -0.0671 -0.79733 0.065121 -0.60002
-0.084874 -0.30117 -0.065357 0.68604 0.28938 -0.66754
0.10242 -0.30391 -0.067839 -0.83212 0.059084 -0.55144
-0.096748 -0.28815 -0.073007 0.74538 0.32084 -0.58435
0.10102 -0.28716 -0.064026 -0.81422 0.0852 -0.57426
-0.10432 -0.27181 -0.073238 0.79217 0.30438 -0.52898
0.10771 -0.26863 -0.072707 -0.89809 0.052278 -0.43669
-0.10662 -0.25906 -0.069714 0.77886 0.3202 -0.5393
0.10891 -0.25374 -0.074223 -0.92242 -0.0053591 -0.38615
-0.11479 -0.24041 -0.070297 0.80846 0.31088 -0.49974
0.10871 -0.24037 -0.074472 -0.92577 -0.012795 -0.37788
-0.12024 -0.22695 -0.071445 0.83507 0.27099 -0.47876
-0.12282 -0.21037 -0.067364 0.85069 0.24687 -0.4641
0.11014 -0.20488 -0.077784 -0.96321 -0.026288 -0.26747
-0.13273 -0.19544 -0.079395 0.90055 0.2296 -0.36919
0.10818 -0.17637 -0.081324 -0.98373 -0.099642 -0.14948
0.10622 -0.15985 -0.077849 -0.98619 -0.065582 -0.15205
0.10545 -0.14863 -0.076308 -0.98772 -0.00090209 -0.15622
-0.14109 -0.1428 -0.075916 0.93909 0.096886 -0.32974
-0.14411 -0.12916 -0.082416 0.96212 0.071646 -0.26306
0.10555 -0.13694 -0.074654 -0.98069 0.047915 -0.18963
0.10631 -0.12556 -0.074865 -0.96838 0.11323 -0.2223
-0.1453 -0.11081 -0.083639 0.97862 0.053948 -0.19847
0.10839 -0.11793 -0.081291 -0.94471 0.2913 -0.15058
-0.14685 -0.09527 -0.087212 0.98798 0.10766 -0.11096
0.10927 -0.11648 -0.086579 -0.7591 0.65047 0.025716
0.11696 -0.1104 -0.088078 -0.706 0.70416 0.07565
-0.14929 -0.078305 -0.09098 0.98985 0.13969 0.026219
0.14443 -0.06096 -0.086293 -0.94243 0.29238 0.16232
-0.15453 -0.028024 -0.097309 0.9601 0.071539 0.27035
-0.15476 -0.014175 -0.099214 0.94801 0.048421 0.31455
-0.15498 0.0039702 -0.10093 0.93343 0.037694 0.35677
0.15354 0.0043272 -0.089138 -0.96623 0.016359 0.25716
-0.15502 0.021322 -0.10225 0.91762 0.034552 0.39596
0.15336 0.019198 -0.089027 -0.96648 -0.040832 0.25347
0.1498 0.057898 -0.087728 -0.95968 -0.18107 0.21501
0.14466 0.073828 -0.093312 -0.93432 -0.25393 0.25014
0.1306 0.11375 -0.09046 -0.88732 -0.43429 0.15507
0.11955 0.13265 -0.092098 -0.87705 -0.43225 0.20965
-0.15999 0.14092 -0.10574 0.8271 0.14067 0.54417
0.13772 0.18023 -0.083242 -0.81491 0.5758 0.066234
-0.16571 0.20953 -0.10705 0.83473 0.046314 0.54871
-0.16597 0.22277 -0.10749 0.83102 0.043541 0.55453
0.14979 0.22002 -0.087429 -0.96289 -0.16244 0.21554
-0.1666 0.23568 -0.10755 0.83461 0.05179 0.54841
-0.1693 0.24837 -0.10487 0.85 0.067033 0.5225
-0.17005 0.26184 -0.10465 0.86036 0.056773 0.50652
0.13604 0.28016 -0.092457 -0.93905 0.17696 0.29475
0.1443 0.31673 -0.087479 -0.97793 0.054008 0.20185
-0.17962 0.36212 -0.10009 0.9503 0.075953 0.30192
0.14232 0.35377 -0.085929 -0.98609 0.067002 0.15214
0.14451 0.36219 -0.083323 -0.9735 0.21975 0.06333
-0.18227 0.37519 -0.09418 0.95705 0.078639 0.27907
0.15036 0.38763 -0.086682 -0.99197 0.12304 0.029145
-0.18475 0.4092 -0.092547 0.97393 -0.031569 0.22465
0.15208 0.40593 -0.082007 -0.99681 0.077339 0.019464
-0.18171 0.43159 -0.09765 0.95876 -0.13229 0.25156
0.15281 0.4257 -0.081797 -0.99992 0.0031362 0.012457
-0.17784 0.45024 -0.098761 0.93427 -0.21918 0.28124
-0.1709 0.47446 -0.097898 0.90726 -0.31604 0.27748
0.14563 0.50301 -0.078501 -0.98195 -0.16215 -0.097405
0.1435 0.51596 -0.079299 -0.97094 -0.2286 -0.070787
-0.14409 0.53565 -0.092999 0.8548 -0.45117 0.25644
-0.1369 0.54889 -0.093642 0.85447 -0.4491 0.26113
0.13408 0.54514 -0.081344 -0.94609 -0.3239 -0.0026407
-0.12372 0.56914 -0.099201 0.81444 -0.48803 0.31387
0.12722 0.56364 -0.080759 -0.93424 -0.35596 -0.022122
-0.10881 0.59081 -0.10136 0.76095 -0.53075 0.37317
0.12294 0.57579 -0.080958 -0.93863 -0.34457 -0.015508
0.11736 0.59075 -0.081022 -0.92377 -0.38273 -0.01335
0.10938 0.60824 -0.082359 -0.89482 -0.44534 0.031206
-0.074998 0.63075 -0.10129 0.66057 -0.54581 0.51551
-0.065395 0.64004 -0.10344 0.62034 -0.53504 0.57351
0.081449 0.64817 -0.08619 -0.74527 -0.64755 0.15889
0.02498 0.6853 -0.095545 -0.19618 -0.85059 0.48787
-0.0074501 0.80948 -0.11418 -0.33806 -0.086944 0.9371
0.063281 -0.38224 -0.047168 -0.2928 0.1813 -0.93883
0.086799 -0.3224 -0.053597 -0.62607 0.10912 -0.7721
-0.072015 -0.30314 -0.054821 0.58033 0.30167 -0.75644
0.089483 -0.30554 -0.053222 -0.66627 0.11346 -0.73703
-0.082832 -0.28673 -0.056714 0.64661 0.32852 -0.68846
-0.09397 -0.26754 -0.058271 0.70548 0.33315 -0.62554
0.10189 -0.25951 -0.061131 -0.84794 0.055586 -0.52717
-0.10309 -0.25139 -0.06017 0.74013 0.32881 -0.58659
0.10363 -0.24168 -0.062952 -0.89409 0.030889 -0.44682
-0.11144 -0.23204 -0.060544 0.777 0.29836 -0.55431
0.10279 -0.22488 -0.058756 -0.90129 0.055642 -0.42963
0.10478 -0.20542 -0.061675 -0.9205 -0.0083987 -0.39066
-0.12255 -0.19305 -0.057909 0.83907 0.25031 -0.48302
0.10468 -0.18699 -0.06278 -0.9435 -0.037981 -0.32919
-0.13273 -0.17615 -0.068775 0.88913 0.19839 -0.41243
-0.1368 -0.15817 -0.070246 0.91222 0.15597 -0.37885
-0.13888 -0.13512 -0.067472 0.93841 0.13322 -0.31882
-0.14049 -0.12107 -0.068024 0.94816 0.10353 -0.30044
0.10264 -0.12069 -0.064034 -0.87666 0.38453 -0.28915
0.10722 -0.11881 -0.071486 -0.68722 0.72541 -0.038878
0.11742 -0.11039 -0.071524 -0.71205 0.70112 -0.037584
0.12852 -0.097074 -0.072541 -0.82384 0.56681 -0.0037165
-0.15195 -0.06174 -0.08745 0.97673 0.17219 0.12784
0.13945 -0.077837 -0.073572 -0.89888 0.43711 0.030661
-0.15677 -0.03899 -0.084262 0.95972 0.14472 0.24082
0.14936 -0.048066 -0.0762 -0.96421 0.23868 0.11544
-0.15809 -0.024584 -0.085678 0.95206 0.10304 0.28803
0.1531 -0.028331 -0.077025 -0.97712 0.15488 0.14576
0.15393 -0.015781 -0.08322 -0.9732 0.10197 0.20611
0.15471 0.033869 -0.077252 -0.98395 -0.09132 0.15333
-0.15943 0.040318 -0.094738 0.90011 0.059117 0.43164
-0.16047 0.054915 -0.095382 0.88095 0.084156 0.46566
-0.16189 0.067887 -0.095721 0.86689 0.09028 0.49025
0.14784 0.074501 -0.07562 -0.95651 -0.26957 0.11141
-0.16221 0.08446 -0.096629 0.85947 -0.023662 0.51064
0.14087 0.09436 -0.075456 -0.9285 -0.36089 0.08741
-0.1613 0.1014 -0.095732 0.86389 -0.0037538 0.50367
0.13447 0.10967 -0.074741 -0.90225 -0.42556 0.06962
0.12704 0.12382 -0.075231 -0.88726 -0.45305 0.086684
0.12183 0.13401 -0.07613 -0.92644 -0.34566 0.14909
0.1197 0.13223 -0.076595 -0.98165 0.13814 0.13143
0.11826 0.13166 -0.081557 -0.79833 0.58307 0.15067
-0.16769 0.16041 -0.097283 0.86416 0.075852 0.49746
0.12961 0.14217 -0.086666 -0.81451 0.48328 0.32096
-0.17382 0.18676 -0.090682 0.88745 0.074437 0.45485
0.13537 0.24473 -0.081592 -0.77029 -0.57046 0.28502
0.1359 0.24118 -0.079951 -0.96095 -0.13182 0.2433
0.13836 0.24703 -0.082626 -0.93531 0.10441 0.33808
0.1373 0.26222 -0.090722 -0.87716 0.043932 0.47818
-0.17591 0.27046 -0.096343 0.87323 0.061564 0.4834
-0.17691 0.28315 -0.096457 0.87902 0.077245 0.47048
0.13889 0.28782 -0.082504 -0.94676 0.067753 0.31473
-0.17928 0.30203 -0.093758 0.89542 0.032641 0.44403
0.142 0.29873 -0.077725 -0.95973 0.14239 0.24218
-0.18001 0.31957 -0.0934 0.9061 0.032627 0.42181
-0.18087 0.3345 -0.092804 0.92012 0.046603 0.38884
0.1455 0.32896 -0.084046 -0.97226 0.011742 0.23362
-0.18339 0.34544 -0.088418 0.92404 0.047137 0.37937
-0.18447 0.35951 -0.086274 0.95128 0.016679 0.30789
0.14629 0.36892 -0.073226 -0.98562 0.14162 0.092189
-0.18491 0.38701 -0.088775 0.96821 0.050133 0.24506
-0.18663 0.39946 -0.083121 0.97922 0.0005888 0.20281
0.14944 0.38673 -0.072931 -0.99357 0.11267 0.010826
-0.18625 0.41905 -0.082709 0.97963 -0.067721 0.18906
-0.18386 0.43935 -0.083233 0.96532 -0.15969 0.20652
0.15223 0.44568 -0.072731 -0.99693 -0.078251 0.0026168
-0.17732 0.46243 -0.088872 0.93633 -0.25518 0.24119
0.14953 0.46408 -0.077931 -0.9945 -0.099733 -0.032035
-0.16769 0.48921 -0.089184 0.89645 -0.36928 0.24499
0.14682 0.48222 -0.073982 -0.98665 -0.12706 -0.10182
-0.15827 0.50935 -0.090799 0.87532 -0.41973 0.24008
-0.15106 0.52947 -0.079683 0.86734 -0.44005 0.23254
0.13868 0.53012 -0.069345 -0.96151 -0.25767 -0.09541
-0.1335 0.5581 -0.088982 0.84873 -0.4467 0.28305
0.13047 0.55501 -0.071759 -0.92816 -0.36816 -0.054531
-0.12146 0.58037 -0.088297 0.80963 -0.46774 0.35456
-0.10363 0.60522 -0.092796 0.72326 -0.55591 0.4097
-0.094778 0.61489 -0.093456 0.67299 -0.60899 0.41979
0.092372 0.63473 -0.084696 -0.79207 -0.6006 0.10912
0.062003 0.66985 -0.079498 -0.6984 -0.68725 0.1998
0.049781 0.68146 -0.081865 -0.56111 -0.75568 0.33779
0.0079647 0.80378 -0.094209 -0.75976 0.1171 0.63958
-0.0089748 -0.3594 -0.041281 0.26823 0.32531 -0.90677
-0.04285 -0.31867 -0.042024 0.4144 0.27088 -0.86885
0.074955 -0.31218 -0.043341 -0.53335 0.1692 -0.8288
-0.061762 -0.29315 -0.043785 0.49732 0.3211 -0.80595
-0.082381 -0.26768 -0.046887 0.61353 0.34026 -0.7126
0.091483 -0.26184 -0.047125 -0.75138 0.11839 -0.64916
-0.092288 -0.25185 -0.048564 0.6644 0.33436 -0.66841
0.092666 -0.24393 -0.046305 -0.78407 0.10619 -0.61152
-0.10258 -0.2336 -0.050126 0.71759 0.3169 -0.62019
-0.11304 -0.2139 -0.053454 0.78288 0.27903 -0.55609
-0.1229 -0.17483 -0.04922 0.84866 0.22492 -0.47873
0.10385 -0.17273 -0.063577 -0.95202 -0.057434 -0.3006
0.10178 -0.1608 -0.059363 -0.95434 -0.033975 -0.29679
-0.13475 -0.1442 -0.060272 0.91536 0.14347 -0.37622
0.10178 -0.14428 -0.059526 -0.95661 0.00016898 -0.29136
0.10104 -0.12761 -0.058384 -0.94373 0.029161 -0.32942
-0.14181 -0.10509 -0.065423 0.95802 0.15538 -0.24095
-0.14616 -0.090018 -0.069228 0.96038 0.25418 -0.11432
-0.14977 -0.078023 -0.07355 0.96056 0.27646 0.029946
-0.1533 -0.065394 -0.072643 0.95282 0.26619 0.14586
0.14578 -0.062447 -0.063026 -0.9393 0.34192 -0.028529
-0.15938 -0.035012 -0.076457 0.9489 0.15831 0.27299
0.15192 -0.041271 -0.064871 -0.97477 0.22075 0.032967
0.15643 -0.0062465 -0.071343 -0.99178 0.076483 0.10254
-0.16206 0.011462 -0.083536 0.92972 0.070881 0.36138
0.15682 0.014066 -0.071864 -0.99266 -0.015924 0.11991
-0.16314 0.026245 -0.084008 0.91987 0.08285 0.38338
-0.16572 0.036878 -0.080346 0.9098 0.1007 0.40265
0.1529 0.053161 -0.07393 -0.98194 -0.14972 0.11567
-0.16792 0.12703 -0.087576 0.86847 0.16533 0.46735
-0.17471 0.14084 -0.080912 0.89542 0.14332 0.42151
0.13894 0.14949 -0.073625 -0.89978 0.27784 0.33645
0.13927 0.18128 -0.063577 -0.96225 0.27206 -0.0082222
-0.17785 0.20475 -0.085603 0.91278 0.059477 0.4041
0.14789 0.19458 -0.064814 -0.86049 0.50851 0.031057
-0.18019 0.2222 -0.083583 0.91907 0.062353 0.38913
0.15318 0.22948 -0.07138 -0.93958 -0.32621 0.10375
-0.18099 0.24006 -0.084012 0.919 0.051707 0.39086
-0.18161 0.25806 -0.084515 0.9175 0.052539 0.39426
0.14378 0.25949 -0.070703 -0.96439 0.13509 0.22738
-0.18674 0.29314 -0.077232 0.95361 0.036436 0.29884
-0.187 0.31128 -0.077022 0.95633 0.016469 0.29182
-0.18819 0.32867 -0.074207 0.96272 0.021526 0.26964
0.14583 0.3176 -0.075225 -0.96776 0.098199 0.23192
0.14725 0.33922 -0.076 -0.96546 -0.037916 0.25778
0.14459 0.35594 -0.075971 -0.96641 -0.010542 0.25679
-0.18685 0.3725 -0.079976 0.96949 0.022278 0.24412
-0.18863 0.39039 -0.073507 0.98457 0.010584 0.17467
-0.18847 0.40931 -0.072564 0.98906 -0.035362 0.14323
0.15139 0.40587 -0.065837 -0.99683 0.079185 -0.0079418
0.15261 0.42569 -0.063524 -0.99992 0.0034313 -0.01192
-0.17678 0.47195 -0.079708 0.92975 -0.29203 0.22425
0.15018 0.46432 -0.067515 -0.98989 -0.13958 -0.025056
0.14713 0.47953 -0.061876 -0.98077 -0.18333 -0.066869
0.14448 0.49232 -0.060848 -0.98002 -0.17124 -0.10113
-0.14451 0.54324 -0.078167 0.86335 -0.43479 0.25609
0.13422 0.54509 -0.064808 -0.93954 -0.32244 -0.1153
-0.1382 0.55697 -0.076537 0.86168 -0.42604 0.27568
-0.13189 0.56605 -0.082231 0.84733 -0.4324 0.30833
0.12639 0.56296 -0.060187 -0.93469 -0.33345 -0.12318
-0.12716 0.57968 -0.075895 0.82877 -0.45342 0.32795
0.12173 0.57607 -0.060076 -0.93253 -0.34275 -0.11366
-0.11621 0.59354 -0.083585 0.8002 -0.47613 0.36467
0.11631 0.59022 -0.061017 -0.92605 -0.36511 -0.095499
0.11078 0.60472 -0.062451 -0.91183 -0.4061 -0.060467
-0.092425 0.62113 -0.087796 0.68573 -0.54576 0.48158
-0.083496 0.63339 -0.091247 0.63219 -0.19368 0.75022
0.093564 0.63496 -0.063115 -0.82141 -0.56976 -0.025583
0.082189 0.65024 -0.064721 -0.78401 -0.62011 0.027954
-0.048612 0.66793 -0.09909 0.069884 -0.19374 0.97856
-0.069465 0.74616 -0.097212 0.060882 0.20016 0.97787
-0.048402 0.84502 -0.098574 0.21337 -0.16074 0.96366
0.0205 0.84884 -0.095175 -0.32319 -0.084007 0.9426
-0.032277 0.86165 -0.098551 0.10113 -0.20145 0.97426
0.0016168 0.86118 -0.097969 -0.15743 -0.19506 0.96807
-0.0060583 -0.31705 -0.030043 0.15401 0.21832 -0.96365
-0.017325 -0.30894 -0.030407 0.21225 0.24958 -0.94481
-0.028525 -0.30183 -0.031232 0.29714 0.2889 -0.91008
-0.040328 -0.29289 -0.032961 0.36712 0.31061 -0.87678
0.057345 -0.29692 -0.030769 -0.38477 0.24976 -0.88858
-0.071192 -0.25952 -0.034701 0.53661 0.34565 -0.76978
0.081226 -0.25789 -0.035643 -0.67391 0.13277 -0.72678
-0.08082 -0.25191 -0.038421 0.59173 0.35104 -0.72569
-0.091956 -0.23454 -0.039462 0.65168 0.34117 -0.67744
0.092519 -0.22638 -0.04206 -0.81814 0.10835 -0.56472
-0.10253 -0.21584 -0.04122 0.71711 0.3109 -0.62377
0.092813 -0.20805 -0.039153 -0.84368 0.079294 -0.53095
-0.11297 -0.19642 -0.044742 0.782 0.28076 -0.55646
0.095554 -0.18864 -0.041854 -0.88642 0.017051 -0.46258
0.095996 -0.17413 -0.042997 -0.90616 -0.028095 -0.422
-0.12738 -0.15844 -0.050149 0.86925 0.19584 -0.45393
0.095456 -0.16146 -0.043202 -0.90432 -0.011754 -0.4267
0.095759 -0.14396 -0.043286 -0.9085 -0.01054 -0.41775
-0.13331 -0.1305 -0.051732 0.90695 0.13627 -0.39858
0.093611 -0.12638 -0.040818 -0.89371 -0.011719 -0.44848
-0.13595 -0.11845 -0.054106 0.91945 0.16245 -0.35809
0.093589 -0.11997 -0.042013 -0.85659 0.21292 -0.47003
0.11538 -0.10873 -0.049141 -0.69327 0.69234 -0.20011
0.12695 -0.096078 -0.050878 -0.80009 0.5766 -0.16549
0.13886 -0.077952 -0.056818 -0.8882 0.45069 -0.089303
-0.15777 -0.050393 -0.070793 0.94492 0.2325 0.23035
0.15002 -0.047011 -0.050119 -0.95964 0.26981 -0.079312
-0.16401 -0.016526 -0.070742 0.93993 0.12679 0.31696
0.15468 -0.026542 -0.053808 -0.98478 0.16829 -0.043463
-0.16646 0.001914 -0.069809 0.93406 0.096799 0.34373
0.15726 -0.0062541 -0.054263 -0.99665 0.076737 -0.028299
-0.16925 0.014922 -0.065651 0.93222 0.09226 0.34993
0.1578 0.014259 -0.054647 -0.99963 -0.022375 -0.01551
0.15644 0.034145 -0.054866 -0.9949 -0.10053 -0.008185
-0.16985 0.053509 -0.075863 0.90554 0.13105 0.4035
0.15343 0.05411 -0.054886 -0.98339 -0.18136 -0.0075351
-0.17455 0.067833 -0.070583 0.92464 0.092073 0.36955
0.14862 0.075417 -0.055447 -0.96172 -0.2738 0.011181
-0.17528 0.084601 -0.069962 0.93676 -0.028381 0.34883
0.14358 0.089971 -0.055426 -0.93536 -0.35354 0.010452
0.13717 0.1051 -0.058114 -0.91039 -0.41286 0.026998
-0.17193 0.10688 -0.075192 0.92065 0.03286 0.389
0.12892 0.1224 -0.056778 -0.91909 -0.39011 0.055542
0.12328 0.13623 -0.062809 -0.9453 -0.30697 0.1104
0.12054 0.13509 -0.056477 -0.98096 0.18882 0.045504
-0.17871 0.15621 -0.075168 0.93301 0.069613 0.35304
-0.18024 0.16965 -0.07345 0.93945 0.06 0.33739
-0.18164 0.18736 -0.071827 0.96434 0.052861 0.25932
0.14966 0.23181 -0.055709 -0.95382 -0.29972 0.01991
0.14232 0.2428 -0.059301 -0.95113 -0.2661 0.15663
0.14226 0.2464 -0.060299 -0.981 0.074432 0.17919
-0.1873 0.27501 -0.071682 0.96397 0.056261 0.25999
0.14784 0.27316 -0.063695 -0.96981 0.11869 0.21303
-0.18996 0.30244 -0.059975 0.99609 0.017101 0.08662
0.14928 0.29212 -0.063025 -0.95298 0.070529 0.29473
0.15006 0.30948 -0.063205 -0.95381 0.076446 0.29052
0.14821 0.32733 -0.069857 -0.93482 0.03892 0.35298
0.14957 0.35223 -0.065658 -0.92874 -0.095505 0.35822
0.14843 0.36266 -0.064296 -0.95704 -0.088122 0.27625
0.14867 0.37219 -0.061661 -0.97797 0.032688 0.20616
0.14947 0.38521 -0.060834 -0.98564 0.037001 0.16476
0.15083 0.4002 -0.057275 -0.99347 0.055694 0.09956
-0.188 0.42845 -0.067566 0.98847 -0.088554 0.12281
-0.18567 0.44618 -0.068455 0.97394 -0.16794 0.15244
0.15117 0.44632 -0.055105 -0.99231 -0.09972 -0.0733
0.14856 0.46537 -0.051391 -0.98169 -0.14813 -0.11974
-0.17457 0.48483 -0.069586 0.9133 -0.36018 0.19012
-0.16841 0.49943 -0.06963 0.89835 -0.39418 0.19388
-0.15843 0.51846 -0.072346 0.87836 -0.42997 0.20883
-0.15233 0.53395 -0.066154 0.87793 -0.42426 0.2219
0.13529 0.52964 -0.05106 -0.94671 -0.24581 -0.20812
-0.14395 0.55157 -0.066526 0.87616 -0.40318 0.26418
0.12953 0.54994 -0.052568 -0.92317 -0.32704 -0.202
-0.13731 0.56509 -0.068399 0.8652 -0.4042 0.29672
-0.1142 0.60471 -0.072877 0.78259 -0.53417 0.31972
-0.10489 0.61457 -0.07605 0.74457 -0.52791 0.40855
-0.095569 0.62323 -0.081307 0.7284 -0.29611 0.61786
-0.093757 0.62825 -0.084231 0.6383 -0.024722 0.76939
0.065806 0.67195 -0.05785 -0.80002 -0.59298 0.091384
-0.11023 0.72227 -0.085163 0.23844 0.34282 0.90864
0.038969 0.86112 -0.085087 -0.49244 -0.20506 0.84584
-0.080753 -0.23472 -0.029688 0.58761 0.36552 -0.72188
0.083105 -0.22355 -0.029452 -0.74878 0.15763 -0.6438
-0.091985 -0.21681 -0.030595 0.65218 0.33533 -0.67986
-0.10236 -0.19832 -0.032277 0.71088 0.31006 -0.63128
-0.11238 -0.1834 -0.037225 0.77624 0.28097 -0.56437
-0.11448 -0.16921 -0.033221 0.78896 0.25127 -0.56072
-0.11998 -0.15459 -0.035246 0.83344 0.1977 -0.51603
-0.12576 -0.14511 -0.041877 0.86592 0.17389 -0.46899
-0.12453 -0.13639 -0.035991 0.85155 0.17812 -0.49309
-0.13459 -0.10988 -0.045628 0.89701 0.31154 -0.31355
-0.14176 -0.096381 -0.052012 0.89354 0.43693 -0.10332
0.13579 -0.079436 -0.042922 -0.86246 0.46444 -0.20112
-0.15619 -0.062579 -0.06076 0.91903 0.34632 0.18826
