-0.1568 0.42074 -0.032113 0.93453 0.19039 0.30067
0.16464 0.40595 -0.031548 -0.92851 0.22006 0.29908
-0.15163 0.40112 -0.034663 0.91812 0.22222 0.32815
0.15957 0.38638 -0.031144 -0.91354 0.28494 0.29026
-0.15116 0.38847 -0.026633 0.9194 0.25617 0.29845
0.15262 0.36657 -0.031593 -0.89765 0.34306 0.27665
-0.14539 0.36984 -0.025996 0.90194 0.30951 0.30119
0.14405 0.34943 -0.035907 -0.85985 0.41572 0.29637
-0.13622 0.34833 -0.030109 0.87546 0.36638 0.31517
0.13216 0.32618 -0.031864 -0.81431 0.49669 0.30035
-0.12554 0.32718 -0.031127 0.83329 0.45332 0.31643
0.11977 0.30477 -0.029057 -0.78264 0.53872 0.31185
-0.11386 0.30652 -0.030098 0.8068 0.51186 0.29508
0.10828 0.29371 -0.036335 -0.769 0.52826 0.35996
-0.10164 0.28807 -0.030134 0.8333 0.49023 0.25552
0.10126 0.28014 -0.032983 -0.84749 0.42139 0.32279
-0.095386 0.27541 -0.028213 0.97301 0.21257 0.089846
0.098737 0.26658 -0.023069 -0.99832 0.026833 0.051275
-0.092464 0.26552 -0.0090034 0.94768 -0.090808 -0.30602
-0.094623 0.27482 -0.039238 0.92501 -0.37423 0.065692
-0.10296 0.26315 -0.033265 0.77047 -0.6205 -0.14611
0.26682 0.24372 -0.032175 -0.22064 -0.86564 -0.44942
0.24878 0.24586 -0.029588 -0.12563 -0.88535 -0.44763
0.2292 0.24706 -0.028414 -0.063854 -0.90008 -0.43102
0.21026 0.24742 -0.027097 -0.058928 -0.90457 -0.42222
0.19057 0.24805 -0.024608 -0.1319 -0.90053 -0.41431
-0.11611 0.24855 -0.033435 0.69501 -0.69155 -0.19679
0.34123 0.22621 -0.026975 -0.16617 -0.50424 -0.84742
0.32384 0.22911 -0.026288 -0.092649 -0.63341 -0.76825
0.3146 0.22203 -0.019283 -0.14545 -0.58747 -0.79607
0.29896 0.22576 -0.019876 -0.1344 -0.67031 -0.72981
0.28104 0.23053 -0.020204 -0.21964 -0.71551 -0.66318
0.33182 0.20152 -0.014383 -0.31722 -0.196 -0.92788
-0.15761 0.21238 -0.027308 0.4868 -0.65586 -0.57696
0.32048 0.17118 -0.010347 -0.40992 0.21238 -0.88705
-0.17853 0.19033 -0.024847 0.49484 -0.4202 -0.76064
-0.19898 0.18007 -0.032068 0.53107 -0.28637 -0.79747
0.30428 0.1495 -0.012068 -0.31648 0.52601 -0.7894
0.28425 0.14624 -0.0088233 -0.17221 0.55447 -0.81419
0.26406 0.14581 -0.0059407 -0.11945 0.56344 -0.81748
0.24317 0.14789 -0.0016276 -0.12787 0.56284 -0.81661
0.22189 0.14104 -0.003652 -0.13947 0.6606 -0.73767
0.20393 0.13365 -0.0066556 -0.17915 0.7429 -0.64498
-0.17676 0.16271 -0.013985 0.59591 -0.12976 -0.7925
-0.19362 0.15892 -0.025479 0.5553 -0.022987 -0.83133
0.18389 0.1254 -0.012711 -0.18303 0.83538 -0.5183
0.16847 0.1243 -0.0079021 -0.34706 0.76309 -0.5452
0.15729 0.1243 0.00047368 -0.66633 0.44292 -0.59986
0.15454 0.11143 -0.0025828 -0.87079 0.2323 -0.43331
-0.16694 0.12671 -0.0016245 0.78758 -0.12447 -0.60352
0.15512 0.099504 -0.011083 -0.95033 0.13639 -0.27978
-0.17139 0.11117 -0.0048196 0.85072 -0.092492 -0.51741
-0.18514 0.097921 -0.039049 0.93267 0.26385 -0.24599
0.15571 0.086227 -0.015746 -0.97929 -0.022953 -0.20116
0.15835 0.069875 -0.018508 -0.9673 -0.18463 -0.17392
-0.18627 0.052605 -0.01745 0.94427 -0.20673 -0.25616
0.69092 0.026868 -0.031088 -0.19027 -0.84274 0.50357
0.66617 0.029734 -0.033135 -0.078092 -0.90519 0.41778
0.64277 0.031704 -0.027104 0.11265 -0.9655 0.23479
0.16407 0.035941 -0.011935 -0.95211 -0.17194 -0.25281
-0.18662 0.039127 -0.010899 0.91852 -0.18853 -0.34754
0.74409 0.0033426 -0.02508 -0.57839 -0.46345 0.67132
0.72115 0.011558 -0.034587 -0.4267 -0.60387 0.67325
0.62382 0.028996 -0.016058 0.28087 -0.95972 -0.0070183
0.60981 0.024587 -0.019348 0.27976 -0.95886 -0.048087
0.59747 0.02197 -0.023777 0.22889 -0.9705 -0.075767
0.16682 0.021086 -0.012161 -0.91179 -0.26423 -0.31435
-0.18603 0.026299 -0.0036902 0.88026 -0.20163 -0.42953
0.24601 0.0062861 -0.026716 -0.20923 -0.74404 -0.63454
0.22756 0.0092246 -0.026199 -0.090036 -0.79975 -0.59354
0.2088 0.010411 -0.026255 -0.056003 -0.82196 -0.56678
0.1922 0.011743 -0.02637 -0.13603 -0.83147 -0.53867
0.17812 0.016821 -0.029696 -0.43717 -0.80943 -0.39206
0.16994 0.0075239 -0.0065473 -0.7495 -0.42346 -0.50886
-0.18887 0.011696 -0.0010458 0.7829 -0.29841 -0.54591
-0.19796 0.022348 -0.024437 0.62578 -0.62188 -0.47081
-0.20547 0.016355 -0.022166 0.29372 -0.70967 -0.64039
-0.21977 0.012777 -0.021784 0.14754 -0.68668 -0.71183
-0.24103 0.0069573 -0.020487 0.15513 -0.59824 -0.78616
-0.26293 0.0090958 -0.026251 0.18543 -0.60273 -0.7761
-0.2831 0.0056756 -0.029548 0.31055 -0.54409 -0.77944
0.74105 -0.019257 -0.035955 -0.62047 -0.11886 0.77517
0.5199 -0.0018786 -0.037766 0.3647 -0.88708 -0.283
0.46396 -0.010654 -0.026995 -0.20207 -0.73172 -0.65096
0.4447 -0.004698 -0.02829 -0.18813 -0.76103 -0.62083
0.42107 -0.0046637 -0.023013 -0.099813 -0.71804 -0.6888
0.40024 -0.0042239 -0.0219 -0.011664 -0.70927 -0.70484
0.38141 -0.0047564 -0.021762 0.022134 -0.69489 -0.71878
0.36304 -0.0055734 -0.021417 0.031414 -0.67339 -0.73862
0.34359 -0.0070038 -0.021214 0.059903 -0.64707 -0.76007
0.32145 -0.012077 -0.019631 0.1033 -0.56212 -0.82058
0.30191 -0.0097263 -0.023504 0.059439 -0.55632 -0.82884
0.286 -0.010088 -0.023582 -0.038387 -0.52368 -0.85105
0.2715 -0.010509 -0.021656 -0.1896 -0.50204 -0.8438
0.25601 -0.012048 -0.015589 -0.28936 -0.45377 -0.84283
-0.25891 -0.017758 -0.012501 0.23922 -0.21943 -0.94585
-0.27871 -0.017031 -0.018042 0.32757 -0.20174 -0.92304
-0.29862 -0.017782 -0.026926 0.42389 -0.17961 -0.88773
0.73421 -0.046202 -0.039163 -0.63946 0.25832 0.72413
0.50019 -0.019166 -0.023445 0.22527 -0.67357 -0.70396
0.48809 -0.018936 -0.024966 -0.045942 -0.66214 -0.74797
0.47624 -0.027401 -0.016377 -0.19742 -0.50866 -0.83803
0.30401 -0.038422 -0.011999 0.19099 -0.13143 -0.97275
0.28916 -0.03917 -0.014191 0.071969 -0.067114 -0.99515
0.27565 -0.040677 -0.014011 -0.12075 -0.0051454 -0.99267
0.26268 -0.040381 -0.010631 -0.303 0.0049433 -0.95298
0.24423 -0.038985 -0.0047991 -0.26369 -0.028127 -0.9642
-0.23485 -0.043576 -0.0045107 0.26694 0.11733 -0.95654
-0.25552 -0.049915 -0.011926 0.29549 0.24078 -0.92451
-0.27241 -0.040672 -0.015392 0.31815 0.13871 -0.93784
0.72049 -0.069899 -0.037159 -0.5857 0.55468 0.591
0.49884 -0.055846 -0.0079838 0.3686 -0.045539 -0.92847
0.4876 -0.052413 -0.010541 -0.03052 -0.091777 -0.99531
0.38405 -0.059356 -0.0010762 0.12253 0.095831 -0.98783
0.36617 -0.063391 -0.0040281 0.11936 0.19241 -0.97403
0.34862 -0.065697 -0.0063427 0.095841 0.25172 -0.96304
0.32996 -0.067686 -0.0091107 0.13452 0.29586 -0.94571
0.3099 -0.067991 -0.012967 0.23694 0.31526 -0.91895
0.24995 -0.064051 -0.011347 -0.29056 0.39049 -0.87355
0.23259 -0.066916 -0.0075214 -0.22788 0.41052 -0.88292
0.21278 -0.068713 -0.0046424 -0.16618 0.40337 -0.89982
0.19563 -0.07346 -0.0032038 -0.33703 0.40464 -0.85011
-0.20435 -0.062492 0.0010134 0.49405 0.24014 -0.83561
-0.22016 -0.063785 -0.0059946 0.30413 0.36753 -0.87888
0.70254 -0.088143 -0.032394 -0.49854 0.76056 0.41593
0.68122 -0.10108 -0.027238 -0.37233 0.89845 0.23273
0.52072 -0.085375 -0.0018666 0.47572 0.40557 -0.78051
0.46428 -0.08569 -0.010466 -0.27374 0.47915 -0.83395
0.44379 -0.089387 -0.0085052 -0.088437 0.53419 -0.84073
0.42265 -0.087073 -0.0065601 0.019198 0.48399 -0.87486
0.40004 -0.08308 -0.0064007 0.093016 0.44395 -0.89121
0.18167 -0.094333 -0.0081444 -0.58503 0.54512 -0.60049
0.66096 -0.10925 -0.023908 -0.33829 0.93619 0.095434
0.63857 -0.11657 -0.019679 -0.22355 0.97277 -0.06123
0.61547 -0.11935 -0.016868 -0.066279 0.98213 -0.17614
0.59337 -0.11878 -0.014182 0.066887 0.95875 -0.27627
0.57131 -0.11256 -0.0071256 0.16756 0.87254 -0.45891
0.55018 -0.1099 -0.0093553 0.20891 0.82241 -0.52916
0.53195 -0.10459 -0.010351 0.3399 0.71925 -0.60593
0.16921 -0.11221 -0.0095524 -0.79888 0.47944 -0.36322
0.1634 -0.12819 -0.019391 -0.90261 0.40639 -0.14196
0.1579 -0.13897 -0.0087689 -0.94147 0.27085 -0.20067
0.15619 -0.15122 -0.01456 -0.98002 0.10253 -0.17044
0.15734 -0.16183 -0.018194 -0.96911 -0.18706 -0.16073
-0.19025 -0.16147 -0.001744 0.89782 -0.0057381 -0.44033
0.20609 -0.17981 -0.014263 -0.10663 -0.95974 -0.25988
0.18719 -0.17795 -0.015927 -0.09197 -0.97204 -0.21603
0.17237 -0.17618 -0.015859 -0.22299 -0.95156 -0.21168
0.1638 -0.17258 -0.017754 -0.52664 -0.8283 -0.19122
0.16071 -0.1678 -0.028485 -0.84215 -0.53602 -0.058877
-0.1913 -0.17485 -0.0026456 0.88275 -0.15547 -0.44338
-0.24884 -0.18247 -0.033741 0.17181 -0.93839 -0.29985
-0.2702 -0.18688 -0.033237 0.16282 -0.89997 -0.40441
0.37465 -0.20986 -0.039956 -0.24838 -0.94873 -0.19552
0.35583 -0.20709 -0.034473 -0.17747 -0.95625 -0.23259
0.33545 -0.20497 -0.029417 -0.22033 -0.94156 -0.2548
-0.29274 -0.19689 -0.024818 0.21229 -0.75357 -0.62215
-0.31346 -0.20878 -0.019969 0.18334 -0.5967 -0.78124
-0.33491 -0.2077 -0.02502 0.16868 -0.59917 -0.78265
-0.35322 -0.20883 -0.028352 0.21538 -0.58749 -0.78004
0.41389 -0.22606 -0.031066 -0.34014 -0.81093 -0.47612
0.39347 -0.22096 -0.027702 -0.29859 -0.84183 -0.44963
-0.33018 -0.23588 -0.010709 0.21396 -0.19997 -0.95616
-0.34974 -0.23369 -0.015867 0.21973 -0.23975 -0.94564
-0.3716 -0.22754 -0.023722 0.25807 -0.35249 -0.89953
-0.3912 -0.23607 -0.02618 0.27871 -0.25797 -0.92508
0.45068 -0.24849 -0.027635 -0.43828 -0.64236 -0.62872
0.43051 -0.24152 -0.022612 -0.38541 -0.6606 -0.64426
-0.26963 -0.26619 0.0029817 0.30992 0.31926 -0.89556
-0.28735 -0.26531 -0.0030807 0.2774 0.29705 -0.91368
-0.30284 -0.26585 -0.006407 0.16696 0.2906 -0.94217
-0.32136 -0.26653 -0.010145 0.17313 0.27402 -0.94601
-0.34194 -0.26758 -0.013972 0.16596 0.23904 -0.95672
-0.36435 -0.26 -0.017014 0.22028 0.093649 -0.97093
-0.3844 -0.25923 -0.02203 0.261 0.072389 -0.96262
0.46263 -0.26918 -0.01998 -0.44687 -0.43582 -0.78126
-0.17421 -0.2935 0.0055327 0.4288 0.599 -0.67626
-0.18433 -0.30066 -0.0051041 0.14625 0.76975 -0.62136
-0.21663 -0.29019 0.0024266 0.11846 0.64483 -0.75509
-0.23686 -0.29212 -0.0035685 0.16673 0.67335 -0.72028
-0.25696 -0.29169 -0.0086851 0.22384 0.66455 -0.71293
0.47918 -0.29217 -0.019792 -0.42081 -0.224 -0.87906
0.46023 -0.2965 -0.0097869 -0.36219 -0.069549 -0.9295
0.44364 -0.29294 -0.0048242 -0.27496 -0.057084 -0.95976
0.31889 -0.31088 -0.0037844 0.2212 0.72725 -0.64975
0.29984 -0.3094 -0.0076018 0.11782 0.82729 -0.54927
0.28306 -0.30865 -0.0085157 0.02549 0.86716 -0.49738
0.26578 -0.30912 -0.0090676 -0.034319 0.89167 -0.45138
0.24673 -0.31005 -0.0096877 -0.015212 0.90776 -0.41921
0.22818 -0.31017 -0.0098221 -0.0021959 0.91044 -0.41363
0.21012 -0.31023 -0.0099542 -0.0030469 0.91243 -0.40923
0.19221 -0.31018 -0.009664 -0.0049425 0.91216 -0.4098
0.17462 -0.30978 -0.0084871 0.00049781 0.90469 -0.42606
0.15645 -0.30966 -0.0093993 0.042376 0.91742 -0.39566
0.14164 -0.31056 -0.012555 -0.053441 0.94678 -0.31742
0.13161 -0.31265 -0.015441 -0.32948 0.91555 -0.23068
0.12466 -0.31709 -0.015683 -0.67632 0.71666 -0.17025
-0.16958 -0.30828 -0.0047416 0.67978 0.55321 -0.48151
-0.20061 -0.30579 -0.01394 0.053218 0.84551 -0.5313
0.49402 -0.31194 -0.023 -0.39055 -0.0060801 -0.92056
0.47637 -0.32149 -0.017181 -0.27995 0.19858 -0.93925
0.46162 -0.3197 -0.012975 -0.25823 0.25719 -0.93122
0.44661 -0.31604 -0.007906 -0.19982 0.27265 -0.94113
0.42876 -0.32188 -0.0073718 -0.11025 0.40762 -0.90647
0.40838 -0.32493 -0.00696 -0.06858 0.51562 -0.85407
0.38704 -0.32561 -0.0063613 -0.018064 0.60081 -0.79919
0.35984 -0.32503 -0.0071962 0.10151 0.70733 -0.69956
0.33432 -0.32261 -0.010993 0.26216 0.77065 -0.58084
0.1156 -0.32791 -0.010787 -0.82019 0.54252 -0.18158
-0.1638 -0.32225 -0.010096 0.83668 0.44442 -0.32009
0.10692 -0.34344 -0.031131 -0.82713 0.5563 0.079935
-0.15761 -0.33469 -0.0088475 0.90642 0.34996 -0.23648
0.094749 -0.36169 -0.02631 -0.83162 0.54638 0.099421
-0.1524 -0.3513 -0.017406 0.96361 0.26666 0.018846
0.084599 -0.377 -0.027519 -0.88645 0.33943 0.31464
-0.14135 -0.37239 -0.036173 0.85738 0.17646 0.48348
0.075499 -0.38916 -0.03722 -0.80092 0.098199 0.59066
-0.12819 -0.38614 -0.049417 0.73428 0.15703 0.66043
-0.1241 -0.39834 -0.052762 0.56278 -0.083456 0.82238
0.093817 -0.4125 -0.031705 -0.51965 -0.38486 0.76278
0.076387 -0.40975 -0.041804 -0.54579 -0.26969 0.79334
0.064472 -0.40153 -0.048804 -0.66065 -0.0061578 0.75067
-0.10422 -0.4095 -0.06452 0.42273 0.073615 0.90326
-0.14199 -0.39199 -0.039116 0.5352 -0.32699 0.77887
0.055267 -0.41775 -0.056723 -0.4753 -0.10401 0.87366
-0.13545 -0.4119 -0.051534 0.40018 -0.309 0.86277
-0.15559 -0.40771 -0.039317 0.4387 -0.4064 0.80148
0.10798 -0.44786 -0.037402 -0.51777 -0.2835 0.80718
0.089567 -0.42901 -0.041695 -0.47539 -0.31586 0.82112
0.06971 -0.43048 -0.052411 -0.42202 -0.2535 0.87042
-0.15229 -0.42907 -0.050928 0.38063 -0.33911 0.86031
-0.17357 -0.42527 -0.038589 0.46722 -0.38146 0.79762
0.087553 -0.4485 -0.049943 -0.44064 -0.25869 0.8596
-0.1706 -0.4474 -0.049485 0.44413 -0.2774 0.85194
-0.1891 -0.44172 -0.03609 0.55486 -0.30273 0.77491
0.1277 -0.48817 -0.03498 -0.58158 -0.14074 0.80122
0.10721 -0.46809 -0.044404 -0.50117 -0.20998 0.83948
-0.18955 -0.46529 -0.042763 0.54911 -0.20094 0.81124
0.10689 -0.48841 -0.048978 -0.49058 -0.13535 0.86082
-0.19595 -0.49072 -0.043797 0.54 -0.16297 0.82574
0.12738 -0.50842 -0.038106 -0.57321 -0.073255 0.81613
0.10626 -0.50861 -0.051255 -0.47999 -0.069385 0.87452
-0.18807 -0.51246 -0.0522 0.46709 -0.09674 0.8789
-0.20707 -0.50791 -0.039491 0.57551 -0.13172 0.80712
0.12669 -0.52828 -0.039588 -0.56991 -0.033641 0.82102
0.10461 -0.52816 -0.053554 -0.47101 -0.031008 0.88158
-0.19104 -0.5284 -0.051689 0.47266 -0.039858 0.88034
-0.21155 -0.52682 -0.038786 0.57975 -0.069328 0.81184
0.1248 -0.54972 -0.04146 -0.56078 -0.01667 0.8278
-0.19246 -0.54696 -0.05122 0.4671 0.0049956 0.88419
-0.21337 -0.5466 -0.038231 0.58317 -0.0035613 0.81234
0.13283 -0.56991 -0.036163 -0.59248 0.010543 0.80552
0.11318 -0.56635 -0.04916 -0.48923 0.025957 0.87177
-0.19308 -0.56661 -0.05036 0.46779 0.060722 0.88175
-0.21404 -0.56657 -0.037101 0.58601 0.059365 0.80813
0.1284 -0.58609 -0.03841 -0.55371 0.070527 0.82971
0.10581 -0.58599 -0.051313 -0.43778 0.090251 0.89454
-0.19337 -0.58653 -0.048003 0.47742 0.12197 0.87017
-0.21393 -0.58631 -0.03491 0.58228 0.11463 0.80487
0.12335 -0.60594 -0.039532 -0.51381 0.12427 0.84886
0.098809 -0.60857 -0.051669 -0.3903 0.14688 0.9089
-0.17249 -0.60585 -0.054937 0.38401 0.16311 0.90881
-0.19347 -0.60604 -0.044275 0.48074 0.16943 0.86034
0.11545 -0.62601 -0.040283 -0.46801 0.19719 0.86144
0.1003 -0.62652 -0.047794 -0.38229 0.21811 0.89793
0.083419 -0.62855 -0.053241 -0.3087 0.22757 0.92353
-0.17283 -0.62527 -0.050496 0.39533 0.20785 0.89471
-0.19344 -0.62515 -0.040219 0.47961 0.20385 0.85348
0.099537 -0.64349 -0.042923 -0.37698 0.27604 0.88413
0.082983 -0.64552 -0.048777 -0.31388 0.27694 0.90818
0.065693 -0.64725 -0.053468 -0.26399 0.27139 0.92556
-0.15262 -0.64438 -0.053646 0.32029 0.25114 0.91342
-0.17284 -0.6446 -0.045649 0.3958 0.24946 0.88381
-0.19376 -0.64456 -0.035072 0.49044 0.24826 0.83537
0.081229 -0.66217 -0.043758 -0.31764 0.30799 0.8968
0.064326 -0.66423 -0.048681 -0.27317 0.30404 0.91265
0.047292 -0.66548 -0.052812 -0.22321 0.29359 0.92951
-0.13317 -0.66318 -0.053899 0.24963 0.31336 0.91624
-0.15274 -0.66386 -0.047613 0.31748 0.30346 0.8984
-0.17302 -0.66422 -0.039368 0.39838 0.3042 0.8653
0.062175 -0.68088 -0.043323 -0.27398 0.3379 0.90042
0.046031 -0.68277 -0.047483 -0.23353 0.34568 0.90883
0.031072 -0.68225 -0.050844 -0.17568 0.33631 0.92522
0.01043 -0.68143 -0.054357 -0.11375 0.32563 0.93863
-0.0093635 -0.68183 -0.055684 -0.049851 0.32203 0.94541
-0.027975 -0.68262 -0.055956 -0.016693 0.32043 0.94713
-0.04668 -0.6829 -0.056003 0.0075851 0.32083 0.94711
-0.065773 -0.68313 -0.055551 0.035576 0.32946 0.9435
-0.086361 -0.68359 -0.054263 0.087406 0.3534 0.93138
-0.11091 -0.68091 -0.052187 0.15981 0.36725 0.91629
-0.13369 -0.68275 -0.04661 0.23842 0.36348 0.90058
-0.15376 -0.6831 -0.040186 0.32257 0.35983 0.87548
0.042457 -0.69962 -0.041062 -0.21545 0.37989 0.89959
0.01887 -0.70103 -0.045472 -0.15368 0.37853 0.91274
0.0012329 -0.6972 -0.049547 -0.093465 0.36158 0.92764
-0.015 -0.70044 -0.049476 -0.050927 0.35274 0.93433
-0.034155 -0.70139 -0.049651 -0.0072917 0.34564 0.93834
-0.0535 -0.70193 -0.049197 0.030536 0.35668 0.93373
-0.073196 -0.70258 -0.047938 0.079236 0.37811 0.92236
-0.095175 -0.70585 -0.043628 0.13906 0.4067 0.90292
-0.11911 -0.70317 -0.040772 0.1908 0.42501 0.88485
-0.13786 -0.69956 -0.038001 0.25139 0.42275 0.87068
0.0010932 -0.71744 -0.040873 -0.11451 0.40237 0.90829
-0.021577 -0.71947 -0.042276 -0.04344 0.38961 0.91996
-0.041724 -0.72083 -0.041958 0.016203 0.39767 0.91738
-0.061922 -0.72145 -0.040651 0.07353 0.41791 0.90551
-0.078637 -0.71968 -0.039796 0.1111 0.42946 0.89622
0.048589 0.81967 -0.056717 -0.20004 -0.53254 0.82242
0.029451 0.82405 -0.057171 -0.081921 -0.54915 0.8317
0.0067232 0.82451 -0.05729 0.044393 -0.54451 0.83758
0.063062 0.80245 -0.063069 -0.28468 -0.49732 0.81953
-0.019671 0.82139 -0.055466 0.19039 -0.53159 0.82533
0.11254 0.78242 -0.047784 -0.56159 -0.43728 0.70242
0.090049 0.78838 -0.059604 -0.43868 -0.46877 0.76669
0.03798 0.80466 -0.068376 -0.13189 -0.50039 0.8557
0.015558 0.80549 -0.069194 -0.00042702 -0.49745 0.86749
-0.0069357 0.80413 -0.068719 0.11332 -0.49264 0.86283
-0.026705 0.80064 -0.066753 0.2242 -0.49265 0.84085
-0.043972 0.80486 -0.058023 0.32646 -0.49428 0.80567
-0.042415 0.78609 -0.070283 0.31154 -0.45858 0.83226
-0.064386 0.78681 -0.058934 0.43897 -0.44909 0.77822
0.12866 0.7484 -0.05282 -0.65291 -0.34328 0.67518
0.10939 0.76707 -0.059623 -0.54747 -0.40796 0.73065
-0.082796 0.76582 -0.059567 0.51047 -0.43091 0.74414
-0.089486 0.74496 -0.0665 0.53992 -0.3864 0.74778
-0.10139 0.75224 -0.05302 0.60758 -0.39384 0.68974
0.148 0.70923 -0.050234 -0.74323 -0.25891 0.6169
0.12908 0.72905 -0.061966 -0.65495 -0.31334 0.68764
-0.10688 0.73213 -0.058828 0.64145 -0.33785 0.68877
-0.11697 0.71123 -0.057971 0.69971 -0.28635 0.65453
0.14788 0.68976 -0.058067 -0.74089 -0.2293 0.63128
-0.12398 0.6915 -0.058276 0.72958 -0.25759 0.63353
0.16371 0.65104 -0.049456 -0.82205 -0.14634 0.55029
0.1479 0.67083 -0.064348 -0.74154 -0.20344 0.63932
-0.13138 0.67217 -0.057745 0.76015 -0.24097 0.60341
-0.13722 0.65291 -0.057037 0.78761 -0.20859 0.5798
0.16396 0.63152 -0.053531 -0.83045 -0.10329 0.54744
-0.14207 0.6341 -0.056582 0.80446 -0.18453 0.56462
0.16477 0.61204 -0.055181 -0.84742 -0.079472 0.52494
-0.14649 0.61528 -0.05586 0.82602 -0.15962 0.54056
0.16708 0.59309 -0.054127 -0.87676 -0.090859 0.47226
-0.15065 0.59602 -0.055016 0.85022 -0.12059 0.51243
0.16913 0.5724 -0.053921 -0.90025 -0.080703 0.42782
-0.15326 0.57638 -0.05427 0.87039 -0.068557 0.48756
0.17425 0.55282 -0.046333 -0.92092 -0.04957 0.3866
-0.15441 0.557 -0.053673 0.88355 -0.025231 0.46767
0.17318 0.5375 -0.049709 -0.91562 -0.0053106 0.40202
-0.15478 0.53833 -0.05347 0.88744 -0.005491 0.4609
0.17194 0.51861 -0.051714 -0.90658 0.048182 0.41927
-0.15481 0.52008 -0.053405 0.88857 0 0.45875
0.16997 0.49929 -0.052283 -0.90242 0.090167 0.42133
-0.15483 0.50196 -0.053371 0.88916 0.0014565 0.45759
0.1681 0.48084 -0.051708 -0.9098 0.10252 0.40218
-0.15492 0.48332 -0.053055 0.89313 0.017625 0.44944
0.16662 0.46288 -0.051086 -0.91912 0.098647 0.38143
-0.15504 0.46338 -0.051287 0.90173 0.058265 0.42835
0.1643 0.44416 -0.050858 -0.91973 0.11977 0.37383
-0.15509 0.441 -0.046467 0.91524 0.11456 0.38628
0.16171 0.42478 -0.051151 -0.90981 0.16638 0.38022
-0.15106 0.42334 -0.05002 0.90295 0.18058 0.38997
0.15714 0.40519 -0.05148 -0.89341 0.22252 0.39026
-0.14516 0.40658 -0.053577 0.88244 0.23574 0.40709
0.15178 0.38579 -0.051567 -0.88117 0.27212 0.38663
-0.1435 0.38614 -0.044449 0.88255 0.26682 0.38718
0.1445 0.36629 -0.052659 -0.85511 0.33719 0.39382
-0.13523 0.36643 -0.049125 0.86302 0.30348 0.40385
0.1351 0.34608 -0.053512 -0.80402 0.4322 0.40835
-0.12606 0.34546 -0.0505 0.83247 0.37732 0.40574
0.12331 0.32924 -0.056111 -0.75269 0.50276 0.42509
-0.11551 0.3255 -0.051516 0.79104 0.45131 0.41301
0.11213 0.30969 -0.05056 -0.73345 0.52857 0.4274
-0.10299 0.30655 -0.052654 0.76391 0.48202 0.42906
0.096451 0.2914 -0.054992 -0.74326 0.45839 0.48728
-0.092061 0.29115 -0.055583 0.80206 0.38183 0.45924
0.086737 0.27835 -0.05949 -0.83111 0.13666 0.53905
-0.084989 0.28368 -0.063012 0.8631 0.0084068 0.50497
0.097647 0.26584 -0.046536 -0.77283 -0.59543 0.21952
0.089567 0.27264 -0.055904 -0.83586 -0.35772 0.41638
0.16966 0.25417 -0.032355 -0.097772 -0.96078 -0.25952
0.14954 0.25584 -0.034389 -0.036116 -0.97844 -0.20333
0.13109 0.25642 -0.035563 -0.033984 -0.98734 -0.15496
0.11511 0.25746 -0.038182 -0.15278 -0.98605 -0.066053
0.10534 0.26057 -0.041441 -0.48953 -0.87077 0.046034
0.3792 0.24524 -0.045637 -0.2269 -0.47508 -0.85019
0.35732 0.25074 -0.04574 -0.00446 -0.63484 -0.77263
0.34089 0.24635 -0.043127 0.059959 -0.70147 -0.71017
0.32281 0.24425 -0.042658 0.086961 -0.80368 -0.58868
0.2783 0.24722 -0.051042 -0.17746 -0.96202 -0.20744
0.36497 0.22585 -0.032361 -0.25719 -0.35275 -0.89968
-0.13065 0.23521 -0.033434 0.59636 -0.75135 -0.28253
-0.14279 0.22766 -0.035061 0.49005 -0.78464 -0.37973
-0.13279 0.23868 -0.05804 0.41368 -0.90953 -0.040321
-0.14931 0.23121 -0.052746 0.30921 -0.90071 -0.30514
0.37732 0.19235 -0.033258 -0.49531 0.14301 -0.85686
0.3545 0.19637 -0.02245 -0.36724 -0.017632 -0.92996
-0.17095 0.21876 -0.044809 0.38402 -0.75401 -0.53292
-0.19295 0.20439 -0.043834 0.46201 -0.60862 -0.64508
0.36178 0.16968 -0.031817 -0.45752 0.42814 -0.77934
0.34119 0.16342 -0.024564 -0.44269 0.4344 -0.78442
-0.21446 0.18536 -0.046318 0.58301 -0.37582 -0.72032
0.31975 0.1423 -0.026927 -0.41409 0.67473 -0.61095
-0.21221 0.15672 -0.038039 0.58945 0.026305 -0.80737
0.2942 0.12777 -0.032651 -0.21819 0.85696 -0.46692
0.26993 0.1256 -0.028902 -0.090245 0.8718 -0.48149
0.24943 0.12542 -0.027284 -0.043707 0.87752 -0.47755
0.23109 0.12433 -0.027473 -0.074779 0.89617 -0.43736
0.21318 0.1216 -0.029881 -0.11124 0.92808 -0.35537
0.19568 0.11802 -0.034134 -0.13391 0.95854 -0.25152
0.1812 0.11446 -0.040567 -0.15166 0.97961 -0.13176
0.17103 0.11366 -0.03539 -0.27509 0.9474 -0.1636
0.16225 0.11048 -0.03392 -0.54652 0.82888 -0.11951
-0.17495 0.14124 -0.011855 0.68795 -0.0069906 -0.72572
-0.1892 0.13679 -0.024999 0.65142 0.15775 -0.74214
0.16067 0.10903 -0.028858 -0.9064 0.41367 -0.085571
-0.17527 0.12307 -0.012656 0.80247 0.016621 -0.59647
-0.18465 0.12141 -0.023827 0.75 0.18597 -0.63475
0.15746 0.099347 -0.042144 -0.97482 0.18611 0.12284
0.15583 0.086983 -0.04667 -0.98205 -0.039245 0.1845
-0.18525 0.082145 -0.049252 0.99643 0.017622 0.082556
0.16289 0.054981 -0.032444 -0.97652 -0.21535 -0.005722
0.15668 0.072667 -0.052371 -0.95721 -0.17924 0.22722
-0.18586 0.070327 -0.041438 0.99301 -0.11795 0.0032518
-0.18816 0.056292 -0.036655 0.97171 -0.23151 -0.046741
0.1663 0.039065 -0.038679 -0.96403 -0.26447 0.0264
-0.19049 0.043034 -0.029656 0.96256 -0.22931 -0.14456
0.70424 0.0054962 -0.049467 -0.3908 -0.55717 0.73269
0.6813 0.0085982 -0.056692 -0.26418 -0.63744 0.72379
0.65431 0.018426 -0.053609 -0.10862 -0.79737 0.59363
0.62944 0.02554 -0.0413 0.11046 -0.93345 0.34127
0.61343 0.021613 -0.046767 0.084407 -0.95141 0.29612
0.5942 0.01991 -0.045848 0.13318 -0.97257 0.19073
0.57436 0.017455 -0.04163 0.19118 -0.98021 0.051416
0.17018 0.027747 -0.042663 -0.83763 -0.54547 -0.028815
-0.19303 0.030745 -0.02562 0.8915 -0.35964 -0.27549
-0.19432 0.038126 -0.0525 0.70404 -0.70511 -0.084465
-0.19976 0.033746 -0.047997 0.34026 -0.89275 -0.29533
-0.21137 0.03067 -0.045197 0.14216 -0.90336 -0.40463
-0.22798 0.029197 -0.045248 0.078775 -0.89372 -0.44166
-0.24748 0.028534 -0.046441 0.082275 -0.88142 -0.46512
-0.27168 0.02725 -0.050505 0.16791 -0.86767 -0.46793
0.72204 -0.017441 -0.04958 -0.56418 -0.19675 0.80186
0.55419 0.012472 -0.038678 0.27784 -0.95767 -0.075339
0.53788 0.0076217 -0.042746 0.35582 -0.93109 -0.080386
0.44729 0.0091779 -0.057572 -0.25766 -0.94516 -0.2007
0.43013 0.010763 -0.048545 -0.183 -0.91869 -0.35004
0.40907 0.01172 -0.045217 -0.050021 -0.90831 -0.41529
0.39015 0.012329 -0.045828 -0.0027961 -0.91218 -0.40978
0.37191 0.012296 -0.045921 0.0060033 -0.90947 -0.41573
0.35327 0.011969 -0.04554 0.020005 -0.90336 -0.42842
0.33403 0.011041 -0.044949 0.035678 -0.88807 -0.45832
0.31554 0.010643 -0.045093 0.015874 -0.8748 -0.48422
0.29751 0.011019 -0.045841 -0.010692 -0.87089 -0.49136
0.28021 0.011262 -0.045144 -0.067491 -0.86802 -0.49193
0.26212 0.012112 -0.042597 -0.18 -0.86654 -0.46552
-0.29911 0.012739 -0.042943 0.31148 -0.64929 -0.69383
-0.31946 0.0057855 -0.046069 0.33086 -0.53678 -0.77614
0.70256 -0.015568 -0.061754 -0.47268 -0.27386 0.8376
0.50988 -0.00025499 -0.056747 0.14065 -0.985 -0.099959
0.49607 -0.0033066 -0.048233 -0.030552 -0.94138 -0.33596
0.47914 -0.0037265 -0.043377 -0.15323 -0.88972 -0.43003
-0.31594 -0.018516 -0.034409 0.39564 -0.15704 -0.90488
-0.33384 -0.01804 -0.042589 0.3658 -0.16614 -0.91574
0.71513 -0.043273 -0.054802 -0.58734 0.15644 0.79408
0.69818 -0.037612 -0.067373 -0.49444 0.046148 0.86799
-0.29054 -0.045103 -0.023542 0.4084 0.21218 -0.8878
0.69912 -0.06411 -0.058543 -0.52345 0.40298 0.75074
0.29229 -0.068637 -0.018715 0.22426 0.37545 -0.8993
0.27838 -0.071166 -0.02199 0.026526 0.48332 -0.87504
0.2626 -0.074568 -0.022254 -0.20615 0.56997 -0.79539
-0.24007 -0.072142 -0.017015 0.2787 0.54429 -0.79125
-0.25555 -0.077899 -0.026976 0.25829 0.64083 -0.72293
-0.27486 -0.068541 -0.027204 0.32478 0.52144 -0.78906
0.68672 -0.085391 -0.051626 -0.46838 0.65341 0.5947
0.66669 -0.093342 -0.056716 -0.43756 0.70553 0.55747
0.5041 -0.087036 -0.013313 0.41791 0.45854 -0.78427
0.49154 -0.088999 -0.019399 0.14001 0.52651 -0.83856
0.47768 -0.092915 -0.020774 -0.19214 0.59817 -0.77799
0.37796 -0.089543 -0.01353 0.15777 0.56999 -0.80636
0.36048 -0.092651 -0.019514 0.10812 0.64315 -0.75807
0.34212 -0.093028 -0.021798 0.095907 0.65427 -0.75016
0.32224 -0.09259 -0.024848 0.16812 0.65484 -0.73683
0.30145 -0.092062 -0.030853 0.27617 0.67472 -0.68446
0.24054 -0.088837 -0.028546 -0.24218 0.76928 -0.59124
0.22238 -0.087271 -0.019677 -0.20565 0.70508 -0.67866
0.20696 -0.09369 -0.022596 -0.23308 0.74738 -0.62218
0.19196 -0.10333 -0.027559 -0.38752 0.78852 -0.47756
-0.21346 -0.09149 -0.023143 0.47988 0.67095 -0.56528
-0.22795 -0.087649 -0.02627 0.29529 0.73023 -0.61609
0.64661 -0.10879 -0.049178 -0.38587 0.85298 0.35146
0.62369 -0.11778 -0.045227 -0.21013 0.95527 0.20812
0.60137 -0.12122 -0.04245 -0.085178 0.99201 0.093085
0.57911 -0.12171 -0.037607 0.02809 0.99782 -0.059722
0.55895 -0.12057 -0.035225 0.06948 0.98491 -0.15849
0.53774 -0.11778 -0.032829 0.17712 0.94602 -0.27144
0.51707 -0.10768 -0.024734 0.3532 0.78181 -0.51383
0.45398 -0.10844 -0.030724 -0.14613 0.83391 -0.5322
0.43029 -0.10915 -0.027374 -0.032773 0.83261 -0.55289
0.40885 -0.10756 -0.025639 0.061551 0.80138 -0.59498
0.39032 -0.10546 -0.025938 0.13804 0.77563 -0.61591
0.17601 -0.11656 -0.039375 -0.54259 0.82647 -0.15013
-0.20684 -0.10665 -0.038227 0.84502 0.50056 -0.18811
0.16585 -0.12585 -0.041972 -0.78447 0.617 0.06266
-0.20349 -0.11675 -0.03546 0.97802 0.18161 -0.10245
0.15953 -0.13806 -0.039888 -0.93015 0.34516 0.12529
-0.20165 -0.12977 -0.030624 0.98292 0.12494 -0.13512
0.15609 -0.14981 -0.044972 -0.98099 0.048864 0.18782
-0.19913 -0.14853 -0.04016 0.99596 0.089231 0.0097977
0.15604 -0.15983 -0.049173 -0.94816 -0.22835 0.22102
-0.19762 -0.16425 -0.02664 0.98893 -0.03715 -0.14363
0.27444 -0.1865 -0.043329 -0.26112 -0.95752 0.12237
0.25653 -0.18159 -0.034187 -0.15509 -0.9875 -0.028109
0.23892 -0.18009 -0.037726 -0.08424 -0.9962 0.021982
0.21999 -0.17881 -0.040514 -0.086512 -0.99325 0.077211
0.20033 -0.1779 -0.043515 -0.053566 -0.9868 0.15284
0.18328 -0.17724 -0.044508 -0.093613 -0.97836 0.1845
0.17106 -0.17588 -0.045851 -0.28412 -0.93541 0.21044
0.16369 -0.17386 -0.050275 -0.59287 -0.7594 0.26798
0.15679 -0.17026 -0.060111 -0.81514 -0.44551 0.37024
-0.19904 -0.17255 -0.033674 0.92733 -0.36395 -0.08717
-0.20029 -0.17437 -0.034845 0.65704 -0.74368 -0.12345
-0.20471 -0.17594 -0.035059 0.31005 -0.93511 -0.17157
-0.21689 -0.17766 -0.035911 0.12847 -0.97295 -0.19201
-0.23091 -0.17799 -0.040082 0.11043 -0.98028 -0.16387
0.31478 -0.19821 -0.038603 -0.23585 -0.9708 -0.04389
0.29514 -0.19374 -0.047978 -0.28098 -0.94622 0.16039
-0.28358 -0.18181 -0.054924 0.086976 -0.98607 -0.14181
-0.30177 -0.18584 -0.046789 0.080058 -0.92563 -0.36986
-0.32059 -0.18832 -0.04473 0.087731 -0.87212 -0.48137
-0.34147 -0.18856 -0.048742 0.10817 -0.85989 -0.49888
-0.36548 -0.19724 -0.043434 0.22277 -0.74373 -0.63027
-0.38832 -0.20797 -0.040698 0.24606 -0.63291 -0.73409
-0.40883 -0.20869 -0.047072 0.28577 -0.63734 -0.71563
0.42724 -0.22321 -0.052776 -0.37546 -0.90625 -0.19427
-0.40756 -0.23185 -0.032978 0.31705 -0.31623 -0.89414
-0.42814 -0.22706 -0.042968 0.35159 -0.40696 -0.84307
-0.44844 -0.23454 -0.048042 0.39801 -0.33844 -0.85267
0.46679 -0.24506 -0.047389 -0.48022 -0.77675 -0.40749
-0.40413 -0.26024 -0.028092 0.32264 0.090823 -0.94215
-0.42254 -0.25853 -0.034549 0.33533 0.052932 -0.94061
-0.44166 -0.25827 -0.041429 0.35862 0.033235 -0.93289
0.48475 -0.262 -0.040785 -0.48249 -0.63974 -0.59828
-0.27547 -0.29188 -0.015304 0.25116 0.67788 -0.69094
-0.29072 -0.29264 -0.020733 0.13868 0.69547 -0.70505
-0.30792 -0.29244 -0.022622 0.073423 0.66716 -0.74129
-0.32563 -0.29245 -0.024119 0.059792 0.62979 -0.77446
-0.34107 -0.29566 -0.027749 0.077335 0.6433 -0.7617
-0.35751 -0.28929 -0.025578 0.14568 0.53247 -0.83382
-0.37706 -0.2858 -0.027464 0.21324 0.45789 -0.86306
0.5206 -0.28197 -0.048143 -0.47426 -0.53949 -0.69572
0.50088 -0.28269 -0.035055 -0.45843 -0.45627 -0.76267
0.30198 -0.32043 -0.035853 0.28248 0.95076 -0.12754
0.28755 -0.31787 -0.03806 0.12349 0.9913 -0.045569
0.27174 -0.3168 -0.03864 0.029385 0.99943 -0.016657
0.25448 -0.31681 -0.03902 -0.0059176 0.99998 0.0015813
0.2362 -0.31688 -0.03925 -0.001791 0.99996 0.0092326
0.218 -0.31688 -0.039269 0.0024144 0.99995 0.0098766
0.19963 -0.31678 -0.03907 0.0087345 0.9999 0.011363
0.18139 -0.31662 -0.037921 0.019263 0.99976 0.010207
0.16543 -0.31631 -0.033007 0.060451 0.99713 -0.045533
0.15016 -0.31428 -0.040575 0.080402 0.99207 0.096589
0.13614 -0.3127 -0.045857 -0.074512 0.9738 0.21484
0.12533 -0.31269 -0.053531 -0.43357 0.82382 0.36515
-0.17683 -0.31472 -0.029414 0.42451 0.87991 -0.2134
-0.18687 -0.31506 -0.03739 0.047755 0.98902 -0.13984
-0.20197 -0.31631 -0.041273 -0.0091372 0.99268 -0.12045
-0.22129 -0.31048 -0.026058 0.084162 0.91262 -0.40006
-0.24394 -0.30919 -0.028593 0.14221 0.90019 -0.41162
-0.26136 -0.3073 -0.031133 0.17838 0.88858 -0.42262
0.53273 -0.30811 -0.043228 -0.47973 -0.19254 -0.85603
0.51408 -0.30894 -0.032651 -0.46639 -0.10939 -0.87779
0.33505 -0.33429 -0.031408 0.37409 0.86833 -0.32567
0.3166 -0.32592 -0.033903 0.41623 0.88312 -0.21645
0.11638 -0.32472 -0.046015 -0.76624 0.58666 0.26213
-0.16916 -0.32287 -0.036549 0.76133 0.64819 -0.015086
0.50242 -0.33476 -0.030198 -0.35276 0.32841 -0.87619
0.48322 -0.34208 -0.027176 -0.2287 0.48942 -0.84152
0.46158 -0.34445 -0.024956 -0.098774 0.58645 -0.80394
0.43985 -0.3421 -0.02129 -0.049314 0.6298 -0.77519
0.41287 -0.34819 -0.02769 0.058932 0.77655 -0.62729
0.39065 -0.34502 -0.026166 0.098083 0.81669 -0.56867
0.3694 -0.34321 -0.028147 0.17568 0.8633 -0.47313
0.35117 -0.34104 -0.033364 0.27795 0.89156 -0.35757
0.10364 -0.33896 -0.055101 -0.76588 0.52473 0.3716
-0.15722 -0.33992 -0.037304 0.85324 0.51144 0.102
0.092232 -0.35633 -0.050938 -0.73484 0.59017 0.33423
-0.1418 -0.36075 -0.048455 0.81968 0.44647 0.35888
0.077354 -0.37426 -0.050417 -0.7239 0.55897 0.40438
-0.12706 -0.37886 -0.056052 0.74637 0.40493 0.52817
0.062333 -0.39143 -0.054163 -0.71145 0.35399 0.60706
-0.10883 -0.39615 -0.064949 0.58096 0.33689 0.74094
0.040787 -0.41054 -0.065106 -0.49584 0.18549 0.84837
-0.083574 -0.41287 -0.072669 0.35326 0.25736 0.89943
-0.092527 -0.42112 -0.068305 0.29227 -0.03147 0.95582
0.049898 -0.43407 -0.061798 -0.35191 -0.17043 0.92039
0.037994 -0.42436 -0.06492 -0.37639 -0.020028 0.92624
0.020822 -0.42473 -0.071559 -0.31729 0.10529 0.94247
-0.0018245 -0.42665 -0.077243 -0.19128 0.19796 0.96137
-0.027197 -0.42666 -0.079684 -0.013592 0.225 0.97426
-0.055975 -0.42357 -0.078023 0.17879 0.20148 0.96304
-0.075794 -0.42488 -0.072957 0.24844 0.019845 0.96844
-0.11275 -0.41849 -0.061736 0.31796 -0.18292 0.93029
0.066933 -0.4497 -0.05909 -0.36081 -0.22354 0.90545
0.030445 -0.43661 -0.068719 -0.28718 -0.10181 0.95245
0.0098092 -0.43786 -0.073549 -0.21057 -0.039298 0.97679
-0.013026 -0.43981 -0.077839 -0.1146 -0.043905 0.99244
-0.039103 -0.43754 -0.078671 0.028822 -0.034314 0.999
-0.062751 -0.43632 -0.076547 0.15219 -0.088883 0.98435
-0.08313 -0.43394 -0.072403 0.20149 -0.16032 0.96628
-0.09894 -0.4294 -0.068079 0.23042 -0.20377 0.95152
-0.11052 -0.43423 -0.066676 0.23614 -0.24459 0.94043
-0.12927 -0.43382 -0.061116 0.2959 -0.28326 0.91225
0.086462 -0.46868 -0.055238 -0.4124 -0.19029 0.89091
0.046704 -0.45154 -0.066521 -0.29403 -0.18588 0.93755
0.024949 -0.45394 -0.072966 -0.23527 -0.17575 0.95591
0.0043549 -0.44899 -0.076345 -0.17823 -0.165 0.97006
-0.097663 -0.44696 -0.072618 0.19345 -0.22514 0.95493
-0.11644 -0.44585 -0.068219 0.22844 -0.24804 0.94143
-0.12863 -0.45225 -0.067006 0.26122 -0.24535 0.93358
-0.14744 -0.45221 -0.060761 0.33701 -0.25869 0.90527
0.066099 -0.46941 -0.064032 -0.33779 -0.1739 0.92502
0.046748 -0.47044 -0.070151 -0.28531 -0.16954 0.94332
-0.11466 -0.46519 -0.073283 0.22148 -0.19679 0.9551
-0.13381 -0.46545 -0.068504 0.26864 -0.19495 0.94331
-0.14593 -0.47272 -0.066383 0.32386 -0.16675 0.93129
-0.1643 -0.4696 -0.05809 0.41994 -0.17737 0.89005
0.086052 -0.48889 -0.059054 -0.39875 -0.11909 0.9093
0.066014 -0.48945 -0.06694 -0.33161 -0.11215 0.93673
0.047425 -0.48968 -0.073132 -0.30018 -0.12445 0.94573
-0.12837 -0.48572 -0.073263 0.26498 -0.12077 0.95666
-0.1505 -0.4897 -0.066752 0.34906 -0.092898 0.93248
-0.17217 -0.48935 -0.057417 0.44256 -0.11409 0.88945
0.08513 -0.50849 -0.061314 -0.38971 -0.072502 0.91808
0.065166 -0.50915 -0.068934 -0.33558 -0.065673 0.93972
0.045514 -0.50905 -0.075815 -0.30074 -0.064371 0.95153
-0.13257 -0.50857 -0.074085 0.29532 -0.047958 0.9542
-0.15286 -0.5094 -0.067169 0.35274 -0.042668 0.93475
-0.17251 -0.50948 -0.059141 0.4082 -0.07714 0.90963
0.099321 -0.54643 -0.056086 -0.44715 -0.00078642 0.89446
0.083099 -0.52755 -0.063334 -0.37902 -0.035789 0.9247
0.062361 -0.5309 -0.070783 -0.31645 -0.013541 0.94851
-0.13389 -0.52887 -0.073962 0.30531 0.010332 0.9522
-0.15288 -0.5289 -0.067535 0.33732 -0.00013128 0.94139
-0.17126 -0.52903 -0.060678 0.37694 -0.018849 0.92605
0.08057 -0.5439 -0.064866 -0.3603 0.012624 0.93275
0.069836 -0.55118 -0.068018 -0.3166 0.042461 0.94761
0.052791 -0.54825 -0.073834 -0.289 0.040662 0.95646
-0.1338 -0.5487 -0.073216 0.30002 0.066317 0.95163
-0.15224 -0.54808 -0.067283 0.31528 0.042328 0.94805
-0.1716 -0.54752 -0.0605 0.36667 0.020301 0.93013
0.08825 -0.5639 -0.060738 -0.3762 0.055493 0.92488
0.066986 -0.56711 -0.0681 -0.30887 0.073091 0.94829
0.046427 -0.56746 -0.074059 -0.26052 0.088384 0.96141
-0.13306 -0.568 -0.071488 0.27515 0.10684 0.95544
-0.15147 -0.56682 -0.066476 0.28619 0.067645 0.95578
-0.17183 -0.56657 -0.059681 0.36223 0.059377 0.9302
0.08323 -0.58604 -0.060853 -0.34583 0.10444 0.93247
0.062483 -0.58621 -0.067697 -0.28659 0.11307 0.95136
0.041255 -0.58989 -0.072938 -0.2248 0.144 0.96371
-0.11408 -0.58767 -0.073918 0.24097 0.16882 0.95574
-0.13173 -0.58645 -0.069534 0.23092 0.11927 0.96564
-0.15124 -0.5859 -0.065118 0.27839 0.10089 0.95516
-0.17202 -0.5861 -0.057635 0.36852 0.10762 0.92337
0.07491 -0.60596 -0.06085 -0.30999 0.16815 0.93575
0.057706 -0.60279 -0.066791 -0.26335 0.17037 0.94954
0.046418 -0.60912 -0.068318 -0.22252 0.19233 0.95577
0.030338 -0.60747 -0.071945 -0.18137 0.19607 0.96367
0.0085811 -0.61062 -0.075139 -0.135 0.22764 0.96434
-0.094695 -0.60649 -0.074271 0.18837 0.23046 0.95468
-0.11225 -0.6058 -0.070941 0.18582 0.16976 0.96781
-0.1309 -0.60488 -0.067583 0.20314 0.13083 0.97037
-0.15165 -0.60532 -0.062394 0.29208 0.14537 0.94528
0.059368 -0.62282 -0.061896 -0.25994 0.22965 0.93792
0.040458 -0.62151 -0.067088 -0.20119 0.22929 0.95234
0.025036 -0.62538 -0.068725 -0.16129 0.23624 0.95822
0.010229 -0.62964 -0.06979 -0.11888 0.24388 0.96249
-0.0059448 -0.62727 -0.072217 -0.084907 0.26022 0.96181
-0.026377 -0.62692 -0.073859 -0.039219 0.27938 0.95938
-0.04788 -0.62696 -0.073898 0.027823 0.2942 0.95534
-0.072089 -0.62358 -0.073247 0.10396 0.27543 0.95568
-0.092653 -0.62469 -0.070299 0.12429 0.21396 0.9689
-0.1115 -0.62397 -0.068089 0.14155 0.17031 0.97517
-0.1318 -0.62412 -0.064671 0.22091 0.17622 0.95924
-0.1524 -0.625 -0.058318 0.31386 0.202 0.92773
0.040561 -0.64114 -0.061615 -0.20796 0.26882 0.94047
0.020482 -0.64043 -0.065948 -0.15019 0.25995 0.95387
0.0047361 -0.64487 -0.066565 -0.095537 0.27746 0.95598
-0.014485 -0.64571 -0.067504 -0.048148 0.2901 0.95578
-0.034316 -0.64593 -0.067991 -0.0059401 0.30083 0.95366
-0.054436 -0.64522 -0.067933 0.031271 0.29215 0.95586
-0.074389 -0.64437 -0.067302 0.060179 0.26369 0.96273
-0.093725 -0.64372 -0.066215 0.086184 0.2339 0.96843
-0.11332 -0.643 -0.064264 0.147 0.228 0.9625
-0.13332 -0.64351 -0.059974 0.24992 0.24527 0.93669
0.021812 -0.66038 -0.059325 -0.15227 0.29713 0.94262
-0.0016844 -0.66342 -0.061305 -0.076353 0.30263 0.95004
-0.02154 -0.66425 -0.06202 -0.026981 0.30758 0.95114
-0.040588 -0.66435 -0.062141 0.0022474 0.30733 0.9516
-0.05957 -0.66408 -0.062004 0.023502 0.3008 0.9534
-0.078881 -0.66387 -0.06147 0.04998 0.29736 0.95346
-0.099015 -0.66304 -0.060346 0.09993 0.30274 0.94782
-0.11727 -0.65945 -0.05905 0.17929 0.30228 0.93621
0.070167 0.78232 -0.07287 -0.3158 -0.47113 0.8236
0.049064 0.78543 -0.076933 -0.17782 -0.47342 0.8627
0.026028 0.78667 -0.079035 -0.044748 -0.46695 0.88315
0.0039414 0.78618 -0.079027 0.059786 -0.46545 0.88305
0.088023 0.76678 -0.073087 -0.42452 -0.43066 0.79644
-0.020019 0.78318 -0.077314 0.17177 -0.46067 0.87079
-0.038342 0.77139 -0.079138 0.27768 -0.44539 0.85119
0.10875 0.74821 -0.06981 -0.54933 -0.37383 0.74732
0.063607 0.7639 -0.08483 -0.26094 -0.44141 0.85853
0.037396 0.76733 -0.088302 -0.103 -0.44529 0.88944
0.014847 0.76794 -0.088981 0.0062334 -0.4444 0.89581
-0.0073031 0.76676 -0.088377 0.10874 -0.44354 0.88963
-0.025855 0.76435 -0.086201 0.20102 -0.43871 0.87586
-0.057852 0.76842 -0.0723 0.40067 -0.43202 0.80797
0.087555 0.74741 -0.083765 -0.42207 -0.39493 0.81602
-0.044765 0.75235 -0.086828 0.30975 -0.42003 0.85301
-0.070306 0.74864 -0.07666 0.44023 -0.40829 0.79969
0.12917 0.70931 -0.069995 -0.65274 -0.27589 0.70556
0.10878 0.7286 -0.079014 -0.54921 -0.32746 0.76886
-0.083926 0.7276 -0.078649 0.50853 -0.37101 0.77701
-0.089174 0.70855 -0.084281 0.54196 -0.322 0.77627
-0.10124 0.71481 -0.071631 0.61796 -0.32507 0.71586
0.12898 0.69024 -0.077196 -0.64652 -0.2476 0.7216
-0.1036 0.69548 -0.077671 0.6345 -0.27947 0.72063
0.14808 0.65186 -0.069897 -0.74745 -0.17617 0.64053
0.12907 0.67177 -0.083268 -0.64971 -0.2345 0.72311
-0.11207 0.67427 -0.077747 0.67172 -0.26614 0.69135
-0.11973 0.65398 -0.077558 0.70743 -0.23147 0.66781
0.14861 0.63229 -0.074193 -0.76244 -0.14622 0.63032
-0.1262 0.63479 -0.076847 0.73659 -0.20636 0.64409
0.15015 0.61145 -0.07687 -0.79281 -0.15753 0.58876
-0.13164 0.61609 -0.075988 0.76188 -0.18009 0.62217
0.15876 0.59118 -0.069988 -0.84876 -0.13714 0.51068
-0.13619 0.597 -0.075751 0.78092 -0.14494 0.60758
0.16501 0.55706 -0.065228 -0.87846 -0.053923 0.47476
0.15631 0.57714 -0.077509 -0.83897 -0.1052 0.53392
-0.13907 0.57727 -0.075427 0.80165 -0.095908 0.59005
-0.14145 0.55765 -0.074844 0.81986 -0.046933 0.57063
0.16257 0.5388 -0.071151 -0.86367 -0.0083274 0.504
-0.14224 0.53856 -0.074476 0.82949 -0.013308 0.55836
0.16084 0.51885 -0.072793 -0.8574 0.045721 0.51262
-0.14242 0.52012 -0.074337 0.8327 -0.0012885 0.55372
0.15969 0.4999 -0.072838 -0.86101 0.069913 0.50376
-0.14243 0.502 -0.074322 0.83302 0 0.55325
0.15826 0.48183 -0.072256 -0.87209 0.069558 0.48437
-0.14248 0.48373 -0.074252 0.83455 0.0061641 0.55089
0.15714 0.4633 -0.07179 -0.87921 0.084676 0.46884
-0.14263 0.46442 -0.073449 0.84128 0.037607 0.53929
0.15487 0.44403 -0.071856 -0.87331 0.12425 0.47105
-0.14295 0.44399 -0.070686 0.85226 0.091 0.51514
0.15107 0.42441 -0.072037 -0.86113 0.1756 0.47709
-0.14361 0.42493 -0.065021 0.86307 0.14738 0.48311
0.14665 0.40506 -0.072093 -0.85036 0.21789 0.47898
-0.1349 0.40798 -0.074372 0.83145 0.21392 0.51277
0.14096 0.38538 -0.072702 -0.82389 0.27441 0.49589
-0.12888 0.38452 -0.071523 0.82019 0.27295 0.50278
0.13285 0.3654 -0.073352 -0.78842 0.34757 0.50753
-0.12366 0.36125 -0.067138 0.81517 0.30894 0.48996
0.12184 0.34531 -0.073926 -0.73741 0.43683 0.51517
-0.11461 0.34387 -0.070308 0.78061 0.37655 0.49885
0.10895 0.32519 -0.073591 -0.67957 0.51526 0.52219
-0.10249 0.32437 -0.071615 0.72569 0.46104 0.5107
0.092693 0.30637 -0.073862 -0.6428 0.5233 0.55943
-0.088282 0.3071 -0.074768 0.68062 0.4709 0.56127
0.077033 0.29078 -0.077402 -0.63266 0.40625 0.65932
-0.073498 0.29392 -0.080633 0.66625 0.32663 0.67039
0.07197 0.27258 -0.07953 -0.6457 -0.3073 0.69903
0.063672 0.28149 -0.084708 -0.60572 0.10426 0.78882
0.040068 0.28212 -0.099275 -0.41735 0.12117 0.90063
-0.060661 0.28509 -0.089808 0.59425 -0.014985 0.80414
-0.077288 0.27732 -0.07762 0.67291 -0.44141 0.59359
0.085645 0.2647 -0.071379 -0.63959 -0.55916 0.52751
0.051299 0.27507 -0.093286 -0.49933 -0.1723 0.84911
-0.094023 0.27181 -0.059216 0.71857 -0.64692 0.25526
0.399 0.26867 -0.065426 -0.18544 -0.57835 -0.79444
0.38245 0.26547 -0.059852 -0.093056 -0.62985 -0.77113
0.36095 0.26495 -0.059181 0.084226 -0.72985 -0.6784
0.33895 0.26178 -0.06209 0.26805 -0.79769 -0.54022
0.25912 0.25196 -0.057291 -0.13311 -0.9906 -0.031494
0.23898 0.25356 -0.057762 -0.054011 -0.99854 0.0029426
0.21986 0.25412 -0.057283 -0.021586 -0.99972 0.0096491
0.20133 0.25444 -0.057106 -0.034575 -0.99914 0.022771
0.18326 0.25527 -0.058847 -0.070636 -0.99449 0.077469
0.16343 0.25606 -0.061735 -0.029014 -0.9871 0.15747
0.14394 0.25584 -0.063043 0.014425 -0.97855 0.20552
0.12513 0.25474 -0.065352 0.027867 -0.96154 0.27324
0.10792 0.25026 -0.074519 -0.089859 -0.87552 0.47475
0.094937 0.25351 -0.075077 -0.45 -0.71368 0.5368
-0.10598 0.25923 -0.060288 0.67846 -0.70597 0.20322
0.30544 0.24105 -0.040426 0.042839 -0.86486 -0.50019
0.30576 0.25052 -0.064061 0.26993 -0.92728 -0.25939
0.29133 0.24175 -0.041354 -0.10182 -0.91027 -0.40129
0.081625 0.25246 -0.087156 -0.48346 -0.55769 0.67472
-0.12014 0.24648 -0.060556 0.59182 -0.79658 0.12335
0.39268 0.21683 -0.041708 -0.47252 -0.09467 -0.87622
-0.16078 0.23361 -0.069829 0.21124 -0.95681 -0.19975
-0.18423 0.2261 -0.068201 0.3309 -0.86582 -0.37531
0.3974 0.18477 -0.050091 -0.59458 0.36346 -0.71719
-0.20975 0.21035 -0.063755 0.49407 -0.69055 -0.52823
0.37715 0.16249 -0.048637 -0.53023 0.59851 -0.60053
-0.23161 0.1892 -0.063755 0.60192 -0.46871 -0.64653
0.35276 0.14502 -0.050611 -0.40836 0.78582 -0.46447
0.33209 0.13529 -0.048838 -0.41133 0.83914 -0.35589
-0.23036 0.15924 -0.051413 0.61486 -0.038452 -0.7877
-0.24887 0.16238 -0.06701 0.63809 -0.13546 -0.75795
0.31126 0.12493 -0.053486 -0.30919 0.93323 -0.18297
0.29213 0.11909 -0.062694 -0.15275 0.98805 0.020666
0.27466 0.11769 -0.058656 -0.05816 0.99821 -0.014203
0.25527 0.11724 -0.057471 -0.012287 0.99986 -0.01096
0.23691 0.11722 -0.057163 -0.014856 0.99989 -0.0019509
0.21934 0.11685 -0.058078 -0.039946 0.99862 0.034138
0.20194 0.11615 -0.060222 -0.062998 0.99334 0.096486
0.18501 0.11546 -0.062971 -0.088576 0.98023 0.1769
0.16928 0.1141 -0.063446 -0.14343 0.96309 0.22779
0.16109 0.11108 -0.059279 -0.35553 0.90828 0.22051
0.13512 0.12493 -0.094229 -0.18263 0.60486 0.77511
-0.20406 0.13135 -0.038213 0.58722 0.31829 -0.74422
0.14955 0.1111 -0.072283 -0.61592 0.59358 0.51799
-0.18533 0.090547 -0.059728 0.70804 0.69522 -0.12386
-0.19405 0.10877 -0.043732 0.70469 0.50154 -0.50187
0.14633 0.10175 -0.07299 -0.84199 0.12516 0.52477
-0.1798 0.084454 -0.069443 0.81396 0.57082 0.10786
0.14562 0.088644 -0.074267 -0.86887 -0.082983 0.48803
-0.1793 0.081742 -0.071576 0.9322 0.15327 0.32789
0.14547 0.073118 -0.078915 -0.84545 -0.17131 0.50584
-0.17973 0.069348 -0.07033 0.92338 -0.073141 0.37685
0.15805 0.056233 -0.060303 -0.92593 -0.2217 0.30577
-0.1845 0.056598 -0.064103 0.92489 -0.26021 0.27726
0.15931 0.041112 -0.067497 -0.87888 -0.31805 0.35555
-0.19123 0.04381 -0.050364 0.92907 -0.36631 0.051431
0.63661 0.0087572 -0.068754 -0.1357 -0.75634 0.63995
0.61162 0.010007 -0.071428 -0.04757 -0.82906 0.55713
0.58978 0.010494 -0.070837 0.024545 -0.87866 0.47681
0.56826 0.010879 -0.066962 0.11978 -0.92335 0.36481
0.24173 0.019238 -0.050879 -0.11248 -0.95961 -0.25788
0.22181 0.020856 -0.052538 -0.037587 -0.97861 -0.20226
0.20367 0.021409 -0.05313 -0.041124 -0.98303 -0.1788
0.18748 0.022807 -0.055674 -0.11367 -0.98748 -0.10933
0.17581 0.024652 -0.063133 -0.21062 -0.97724 0.025418
0.16863 0.026606 -0.06683 -0.49419 -0.84759 0.19329
0.15907 0.030191 -0.078791 -0.7321 -0.52166 0.43807
-0.28709 0.032967 -0.073052 0.14558 -0.97054 -0.19198
-0.30861 0.028067 -0.068782 0.13826 -0.90399 -0.40459
0.6856 -0.017694 -0.07053 -0.36863 -0.28286 0.88549
0.66559 -0.0089775 -0.074351 -0.31423 -0.44738 0.83732
0.55089 0.0096352 -0.06151 0.21093 -0.94427 0.25269
0.5369 0.0048577 -0.065407 0.23638 -0.94199 0.23829
0.52482 0.0021019 -0.06766 0.1629 -0.97063 0.17703
0.46206 0.0037992 -0.052225 -0.2333 -0.93451 -0.26883
-0.33415 0.012743 -0.057601 0.26118 -0.63548 -0.7266
-0.35481 0.0099843 -0.061955 0.23201 -0.59754 -0.76754
-0.37358 0.0060086 -0.065031 0.30932 -0.54945 -0.77616
-0.34925 -0.016087 -0.048317 0.26428 -0.21193 -0.94087
-0.36805 -0.016093 -0.05317 0.29549 -0.22008 -0.92965
-0.38817 -0.016342 -0.060969 0.39133 -0.23238 -0.89042
0.68212 -0.040424 -0.074835 -0.42726 0.041147 0.90319
0.665 -0.040406 -0.083497 -0.44931 -0.013526 0.89328
-0.30967 -0.047816 -0.033908 0.43234 0.28347 -0.85599
-0.32606 -0.048906 -0.042115 0.34123 0.31875 -0.88428
-0.34458 -0.049794 -0.048133 0.25938 0.30532 -0.91624
-0.36094 -0.039758 -0.050215 0.25974 0.13809 -0.95575
0.67697 -0.067069 -0.070708 -0.4638 0.3783 0.80111
0.65826 -0.067647 -0.081298 -0.47224 0.33666 0.81465
-0.29739 -0.071757 -0.040694 0.41346 0.5979 -0.68671
0.6465 -0.090246 -0.074945 -0.45238 0.58282 0.67503
0.2829 -0.095525 -0.044462 0.2284 0.83889 -0.49407
0.26705 -0.09466 -0.046571 -0.0065942 0.89497 -0.44607
0.25156 -0.097978 -0.050479 -0.16029 0.93263 -0.32328
0.23615 -0.10269 -0.056521 -0.1892 0.96459 -0.18376
0.2209 -0.10352 -0.04656 -0.22006 0.93011 -0.29405
-0.20841 -0.10782 -0.066371 0.44775 0.88943 0.091785
-0.22385 -0.10171 -0.052325 0.25795 0.94078 -0.21999
-0.2427 -0.094362 -0.044407 0.20514 0.88657 -0.41463
-0.26374 -0.091783 -0.047391 0.20929 0.86548 -0.45512
-0.28249 -0.087688 -0.049555 0.31547 0.8116 -0.49171
0.6312 -0.10618 -0.067685 -0.34387 0.77999 0.52285
0.60984 -0.11011 -0.072603 -0.2458 0.83437 0.49337
0.58639 -0.11802 -0.066176 -0.10841 0.94238 0.3165
0.56525 -0.11987 -0.063621 -0.025327 0.97408 0.22479
0.5447 -0.12026 -0.061886 0.020454 0.9903 0.13745
0.5234 -0.11928 -0.055887 0.10678 0.99254 -0.058905
0.50169 -0.11221 -0.042818 0.17477 0.89607 -0.40805
0.48403 -0.11219 -0.045861 -0.017615 0.9051 -0.42484
0.46748 -0.11575 -0.050644 -0.12876 0.94167 -0.31094
0.4504 -0.12001 -0.058143 -0.08046 0.98356 -0.16167
0.43456 -0.11977 -0.053711 -0.030914 0.97903 -0.20136
0.41505 -0.11958 -0.052394 0.021021 0.97661 -0.214
0.39442 -0.11809 -0.050486 0.096702 0.96134 -0.25784
0.37352 -0.11199 -0.042762 0.13048 0.90185 -0.41188
0.35387 -0.1113 -0.044973 0.059725 0.90555 -0.42001
0.33501 -0.11026 -0.045232 0.083677 0.89356 -0.44109
0.31409 -0.10875 -0.048502 0.22432 0.89172 -0.39309
0.29621 -0.106 -0.056301 0.32323 0.90688 -0.27035
0.20178 -0.10923 -0.051011 -0.2566 0.94615 -0.19735
0.18534 -0.11505 -0.059017 -0.30793 0.95141 0.00073991
0.17062 -0.11855 -0.069785 -0.30578 0.92318 0.23287
0.16123 -0.12215 -0.069621 -0.48194 0.80693 0.34148
-0.19656 -0.11289 -0.079134 0.7182 0.5631 0.40879
0.15314 -0.12815 -0.071195 -0.70353 0.54748 0.45312
-0.19774 -0.12142 -0.067783 0.8994 0.28536 0.33113
0.14793 -0.13769 -0.071535 -0.83886 0.25408 0.48141
-0.19813 -0.13449 -0.059099 0.95374 0.14248 0.26472
0.14605 -0.14906 -0.072444 -0.87583 0.0036677 0.48261
-0.18986 -0.15218 -0.075183 0.89188 0.058041 0.44854
0.14538 -0.16168 -0.075532 -0.83276 -0.17758 0.52438
-0.19492 -0.16674 -0.061566 0.94986 -0.12552 0.28637
0.25611 -0.18908 -0.064267 -0.15167 -0.88596 0.43826
0.23331 -0.18791 -0.067868 -0.080592 -0.87337 0.48034
0.2133 -0.18775 -0.069756 -0.036407 -0.85495 0.51743
0.19464 -0.18806 -0.070717 -0.02274 -0.83833 0.54469
