0.2644 0.06378 -0.17426 -0.91966 -0.39177 0.027201
0.27752 0.021111 -0.17694 -0.9815 -0.18825 0.034882
0.28194 -0.0029096 -0.13241 -0.99699 -0.077424 0.0032081
0.28086 -0.023278 -0.17956 -0.99818 0.04005 0.044985
0.27284 -0.069004 -0.18278 -0.95369 0.29364 0.065149
0.27622 -0.044091 -0.22544 -0.98253 0.17023 0.075165
0.18212 0.14409 -0.30775 -0.47779 -0.85943 0.18192
0.19136 0.12525 -0.34948 -0.56733 -0.76436 0.30643
0.15189 0.14797 -0.34477 -0.32082 -0.90702 0.27276
0.19315 0.11251 -0.37244 -0.59829 -0.7151 0.36151
0.12991 0.14598 -0.36889 -0.19994 -0.91588 0.34812
0.10489 0.15771 -0.34061 -0.027459 -0.96749 0.2514
0.058638 0.1527 -0.33515 0.28319 -0.93434 0.21638
0.082892 0.16527 -0.30035 0.12502 -0.97979 0.15613
0.056485 0.16428 -0.258 0.28567 -0.95279 0.10287
0.1141 0.17026 -0.26043 -0.070258 -0.99254 0.099675
0.14395 0.16935 -0.21681 -0.24781 -0.96643 0.067885
0.1653 0.15795 -0.26316 -0.3695 -0.92394 0.099042
0.075612 -0.14912 0.63708 -0.47103 0.8676 0.15938
0.10894 -0.1233 0.63545 -0.72828 0.68225 0.064323
0.11796 -0.11529 0.6385 -0.72379 0.62835 0.28512
0.10342 -0.13111 0.62499 -0.71272 0.67977 -0.17302
0.12538 -0.1007 0.62889 -0.85177 0.52378 0.011809
0.12851 -0.097815 0.61936 -0.87714 0.47372 -0.078856
0.1431 -0.063077 0.62081 -0.94696 0.29941 0.11672
0.14775 -0.025377 0.60762 -0.98521 0.061559 0.15991
0.14947 -0.028229 0.61589 -0.94862 0.1402 0.28368
0.1466 -0.021252 0.6061 -0.88798 0.23737 0.39388
0.14979 -0.028603 0.61866 -0.89068 0.22927 0.39258
0.15081 -0.025168 0.618 -0.85223 0.25671 0.45586
0.15532 -0.034355 0.63134 -0.88098 0.22602 0.41567
0.16461 -0.031938 0.65273 -0.92565 0.20542 0.31778
0.15969 -0.056013 0.65611 -0.89806 0.30976 0.3123
0.16119 -0.074068 0.68831 -0.89961 0.40026 0.17465
0.14398 -0.088444 0.65644 -0.82159 0.47874 0.30949
-0.003984 -0.15988 0.63607 0.11733 0.88473 0.4511
0.021044 -0.16655 0.64035 -0.032196 0.9626 0.26901
0.021438 -0.16666 0.64871 -0.089637 0.99413 0.060534
0.0079729 -0.16741 0.65523 -0.075549 0.992 -0.10109
-0.021569 -0.16849 0.65122 0.096952 0.99293 -0.068504
0.0089104 -0.173 0.63545 -0.056034 0.97072 -0.23359
0.0023386 -0.18203 0.604 0.0074437 0.96351 -0.26757
0.053281 -0.16759 0.61996 -0.35267 0.88292 -0.30998
0.084018 -0.14987 0.62099 -0.54903 0.73344 -0.40079
-0.048847 0.072149 -0.043061 0.9069 -0.40618 -0.11203
-0.035572 0.10358 -0.075798 0.82528 -0.55859 -0.082986
-0.055585 0.065352 -0.072321 0.91389 -0.39212 -0.10516
0.0034243 0.14539 -0.078693 0.59306 -0.80288 -0.060581
-0.017695 0.12959 -0.12198 0.70247 -0.71163 -0.01101
0.0047943 0.14623 -0.16807 0.57486 -0.81712 0.043043
-0.031765 0.11222 -0.1658 0.77181 -0.63499 0.033211
-0.041983 0.095112 -0.2102 0.82348 -0.56272 0.072222
-0.056387 0.074684 -0.1621 0.89013 -0.45553 0.012527
-0.07113 0.038041 -0.16161 0.95876 -0.28394 0.012754
-0.06462 0.052936 -0.11434 0.93231 -0.35689 -0.05851
-0.066318 0.035271 -0.071449 0.95 -0.29192 -0.11083
-0.074492 0.00062856 -0.073457 0.98594 -0.13591 -0.097254
-0.067862 0.017834 -0.043491 0.96658 -0.22064 -0.13054
-0.069473 -0.0040486 -0.052427 0.98454 -0.14675 0.095577
-0.058127 0.031083 -0.065131 0.90555 -0.31769 0.28117
-0.050315 0.059507 -0.046997 0.88669 -0.44494 0.1257
-0.043456 0.078002 -0.027817 0.88072 -0.47351 0.011371
-0.011263 0.10422 -0.053433 0.54259 -0.7318 0.41239
-0.021729 0.10977 -0.009161 0.7492 -0.66197 -0.02218
0.0099141 0.13502 0.01863 0.51803 -0.85016 -0.094229
0.0093118 0.13969 -0.0027373 0.57625 -0.80476 -0.14245
0.030019 0.15811 -0.039042 0.43667 -0.89288 -0.10995
0.058106 0.17152 -0.080487 0.2651 -0.96267 -0.054605
-0.13019 0.09033 0.22676 -0.76583 -0.63881 -0.073592
-0.12261 0.078658 0.18806 -0.84673 -0.52604 0.079575
-0.15694 0.11685 0.20934 -0.60806 -0.79138 -0.063132
-0.10615 0.029036 0.16977 -0.96264 -0.1789 0.20326
-0.12047 0.062621 0.14824 -0.90132 -0.37792 0.21166
-0.12599 0.043177 0.11037 -0.91853 -0.21203 0.33369
-0.14256 0.092967 0.1289 -0.80151 -0.56084 0.20748
-0.16972 0.11932 0.11189 -0.65613 -0.7271 0.20203
-0.17733 0.13121 0.14984 -0.55847 -0.82671 0.068317
-0.22426 0.15172 0.17088 -0.22942 -0.97046 -0.074647
-0.18886 0.13832 0.1903 -0.42679 -0.90174 -0.068676
-0.20396 0.1375 0.2311 -0.27821 -0.93655 -0.21327
-0.25612 0.13752 0.24937 0.082796 -0.93733 -0.33846
-0.217 0.12933 0.26825 -0.15263 -0.91771 -0.36677
-0.22823 0.12054 0.28847 -0.031217 -0.91536 -0.40143
-0.18603 0.11772 0.27312 -0.3365 -0.89491 -0.29311
-0.15873 0.10682 0.26776 -0.49276 -0.86279 -0.11305
-0.14353 0.098074 0.2531 -0.64681 -0.74833 -0.14712
-0.11329 0.063007 0.23429 -0.87111 -0.49105 -0.005905
-0.1018 0.040305 0.23421 -0.91571 -0.37727 0.13831
-0.098269 0.019958 0.21747 -0.97367 -0.19794 0.11307
-0.098701 -0.02635 0.20418 -0.96683 0.1297 0.22002
-0.098791 -0.0030401 0.1905 -0.9835 0.0084215 0.18069
-0.11003 -0.025094 0.1569 -0.93649 0.19694 0.29017
-0.20386 -0.13434 0.39792 0.79362 0.46973 0.38668
-0.21322 -0.035088 0.28685 0.95549 0.10219 0.27677
-0.2062 -0.047116 0.26329 0.95744 0.18617 0.22058
-0.20667 -0.079367 0.30212 0.91658 0.312 0.25005
0.20636 0.047819 -0.42564 -0.6948 -0.66217 -0.2807
0.21823 0.03315 -0.42025 -0.73082 -0.56754 -0.3792
0.20385 0.055683 -0.4303 -0.60609 -0.69379 -0.38897
0.21921 0.054982 -0.45641 -0.67111 -0.6772 -0.30167
0.19586 0.074298 -0.4608 -0.54309 -0.79957 -0.2564
0.18103 0.089935 -0.49383 -0.41711 -0.89918 -0.13225
-0.015537 0.061735 -0.91732 -0.92325 0.056301 -0.38005
-0.018595 0.034651 -0.91753 -0.92099 0.15211 -0.35867
-0.0083113 0.042307 -0.95619 -0.98324 0.16896 -0.06853
-0.032561 0.033479 -0.89177 -0.84558 0.098118 -0.52475
-0.021656 0.01414 -0.91978 -0.93655 0.17722 -0.30244
-0.024053 -0.00042771 -0.92052 -0.95679 0.13705 -0.25647
-0.020638 -0.0027376 -0.96171 -0.96318 0.26233 0.058965
-0.038706 -0.015457 -1.0092 -0.82501 0.28841 0.48598
-0.035976 -0.0009196 -1.016 -0.7923 0.34519 0.5031
-0.089055 0.020033 -1.0648 -0.33139 0.22495 0.91629
-0.031586 0.023092 -1.0255 -0.77915 0.28213 0.55976
-0.026184 0.058995 -1.0302 -0.79924 0.089942 0.59424
-0.091335 0.08027 -1.0717 -0.2574 -0.032078 0.96577
-0.028077 0.09032 -1.033 -0.77933 -0.072488 0.6224
-0.040007 0.12779 -1.0363 -0.68146 -0.3162 0.66003
-0.01056 0.11664 -0.95037 -0.95351 -0.26752 -0.13875
-0.034512 0.14333 -0.91356 -0.78381 -0.45059 -0.42734
-0.01788 0.096168 -0.91362 -0.89356 -0.13196 -0.42912
-0.03193 0.076968 -0.88806 -0.80765 -0.039626 -0.58833
-0.045253 0.056675 -0.872 -0.734 0.01215 -0.67904
-0.049551 0.041164 -0.86698 -0.75138 -0.027437 -0.6593
-0.11625 0.015006 0.63852 0.62 -0.39335 -0.67887
-0.19683 -0.04317 0.20039 0.84838 0.14004 -0.51053
-0.18173 -0.080929 0.20823 0.78907 0.30824 -0.53136
-0.20275 0.0035309 0.19186 0.86301 -0.1068 -0.49376
-0.17811 -0.13467 0.17828 0.68568 0.49388 -0.53472
-0.17987 -0.10415 0.19987 0.72605 0.35673 -0.58788
-0.15873 -0.11363 0.21614 0.67065 0.47736 -0.56776
-0.20102 0.0018715 0.20155 0.99571 -0.082355 0.042177
-0.1972 0.022099 0.19506 0.96407 -0.19324 -0.18231
-0.18035 0.068544 0.19311 0.8485 -0.4524 -0.27457
-0.19417 0.039011 0.19401 0.87322 -0.29262 -0.38969
-0.1973 0.051144 0.17874 0.81779 -0.36983 -0.44097
-0.13304 0.13856 0.11648 0.2329 -0.91151 -0.33898
-0.14275 0.14329 0.097977 0.26937 -0.90328 -0.33395
-0.10731 0.15754 0.061602 0.0011385 -0.97468 -0.22362
-0.16339 0.14554 0.06721 0.39128 -0.88375 -0.25669
-0.18914 0.14046 0.03579 0.53976 -0.81438 -0.21317
-0.18218 0.091045 0.15757 0.71656 -0.61495 -0.32921
-0.16555 0.11026 0.15424 0.68149 -0.69709 -0.2228
-0.16066 0.11912 0.13352 0.58272 -0.78744 -0.20095
-0.14529 0.13404 0.11041 0.5197 -0.85098 -0.075836
-0.14072 0.13589 0.11188 0.38305 -0.90635 -0.17835
-0.10606 0.14731 0.088461 0.115 -0.98468 -0.13105
0.075116 0.14615 -0.37196 0.17041 -0.98089 0.093926
0.040622 0.13995 -0.35955 0.39801 -0.87228 0.2841
0.070811 0.14261 -0.3775 0.19662 -0.92455 0.32641
0.11425 0.14514 -0.37593 -0.10298 -0.95861 0.26546
0.14998 0.13655 -0.37544 -0.34647 -0.92637 0.14763
0.11556 0.14627 -0.3717 -0.12594 -0.98565 0.11241
0.2392 0.0073132 -0.43024 -0.84943 -0.35981 -0.38601
0.2552 -0.013881 -0.45498 -0.92831 -0.20842 -0.30789
0.24414 0.019128 -0.45522 -0.85573 -0.41326 -0.31137
0.26611 -0.0334 -0.48123 -0.96452 -0.08923 -0.24848
0.27244 -0.055168 -0.50692 -0.97821 0.028631 -0.20562
0.27036 -0.019276 -0.50976 -0.9668 -0.17366 -0.18745
0.2717 -0.0030028 -0.54067 -0.95092 -0.28139 -0.12876
0.26021 0.017187 -0.51332 -0.90283 -0.39935 -0.15942
0.23407 0.057879 -0.51731 -0.72259 -0.68035 -0.12242
0.24362 0.037715 -0.48549 -0.81511 -0.53619 -0.21932
0.23846 0.00085424 -0.42535 -0.89402 -0.3487 -0.28131
0.11448 0.13557 0.55712 -0.71103 -0.48538 0.50876
0.13487 0.10294 0.56476 -0.84073 -0.25394 0.47821
0.14906 0.098227 0.59209 -0.91329 -0.20127 0.3541
0.14634 0.07945 0.57765 -0.90129 -0.13966 0.41009
0.1541 0.060879 0.59089 -0.9339 -0.10023 0.3432
-0.18707 0.066617 0.24939 0.9083 -0.39429 0.13974
-0.17874 0.073014 0.21983 0.88237 -0.45568 0.11737
-0.19435 0.035926 0.22513 0.9523 -0.28999 0.095005
-0.15493 0.10929 0.21728 0.75815 -0.63251 0.15858
-0.16062 0.099079 0.19665 0.77993 -0.6254 0.024062
-0.14045 0.11846 0.18879 0.66643 -0.73813 -0.10504
-0.16213 0.097448 0.19251 0.76035 -0.61772 -0.2007
-0.16518 0.09956 0.18092 0.74128 -0.60844 -0.28339
-0.20337 -0.018245 0.23078 0.99173 0.025142 0.12583
-0.17213 0.09921 0.26603 0.84449 -0.50463 0.17939
-0.14187 0.13948 0.26314 0.65184 -0.69306 0.30784
-0.14648 0.12807 0.24551 0.69494 -0.68567 0.21662
-0.12469 0.13786 0.21642 0.57904 -0.79642 0.17445
-0.12976 -0.010623 0.097602 -0.89342 0.1605 0.41957
-0.13829 0.024427 0.074897 -0.88922 -0.046681 0.45509
-0.15468 0.0073645 0.048886 -0.85168 0.11506 0.51127
-0.15021 0.05366 0.06176 -0.87839 -0.21907 0.42478
-0.16582 0.082722 0.047836 -0.85852 -0.38849 0.3347
-0.16577 0.10288 0.081908 -0.75543 -0.5919 0.28104
-0.19876 0.13718 0.10287 -0.50737 -0.85086 0.1364
-0.23398 0.15417 0.092821 -0.32016 -0.94735 0.0058786
-0.24383 0.15609 0.12153 -0.19019 -0.98165 0.013524
-0.29517 0.15614 0.13575 0.18608 -0.9783 -0.091072
-0.26014 0.15832 0.15196 -0.025757 -0.99739 -0.067506
-0.2772 0.15159 0.1892 0.13925 -0.96976 -0.20045
-0.059861 -0.2038 0.50894 -0.022903 0.99731 -0.069686
-0.098741 -0.20317 0.50343 0.050915 0.99646 -0.066951
-0.13096 -0.19945 0.51048 0.10137 0.98827 -0.11423
-0.15072 -0.19735 0.51109 0.10552 0.98743 -0.11766
-0.13775 -0.20085 0.46915 0.16214 0.98641 0.026611
-0.17093 -0.18294 0.42161 0.50449 0.82896 0.2415
0.054849 0.20082 0.61469 -0.22347 -0.95289 0.2051
0.073432 0.19023 0.59632 -0.33198 -0.88857 0.3166
0.056653 0.19592 0.59899 -0.27554 -0.9228 0.26929
-0.21715 -0.19647 -0.92816 0.57418 0.80419 -0.15359
-0.19975 -0.21199 -0.95658 0.45176 0.89143 -0.035716
-0.16188 -0.21927 -0.92738 0.16154 0.96488 -0.20713
-0.21108 -0.19115 -1.02 0.51839 0.72033 0.46086
-0.13209 -0.15854 -1.0679 -0.084659 0.40399 0.91084
-0.11855 -0.21175 -1.0186 -0.17486 0.86303 0.47392
-0.071954 -0.20316 -0.99169 -0.52165 0.81635 0.24789
-0.11318 -0.22149 -0.94402 -0.21124 0.96776 -0.13719
-0.11643 -0.21795 -0.92347 -0.18082 0.97128 -0.15469
-0.07235 -0.20023 -0.924 -0.52946 0.83793 -0.1325
-0.10738 -0.21464 -0.90022 -0.25176 0.96766 -0.016
-0.087541 -0.20955 -0.85881 -0.40799 0.91022 0.071007
-0.14709 -0.21892 -0.85681 0.098305 0.99376 0.052724
-0.1607 -0.22068 -0.80264 0.21493 0.97416 0.069464
-0.19576 -0.20437 -0.83571 0.48054 0.87508 0.057498
-0.22394 -0.18825 -0.80023 0.66239 0.74566 0.072344
-0.23012 -0.17642 -0.85195 0.73178 0.68052 0.03724
-0.25417 -0.14123 -0.84974 0.89804 0.43813 0.039592
-0.24636 -0.15693 -0.88417 0.84306 0.53405 -0.063594
-0.2619 -0.11829 -0.88927 0.93671 0.24667 -0.24845
-0.23915 -0.17118 -0.90548 0.7386 0.64241 -0.20442
-0.25206 -0.16451 -0.93746 0.80051 0.59147 -0.096698
-0.27623 -0.10646 -0.93801 0.98304 0.15907 -0.091234
-0.26727 -0.14068 -0.97482 0.90971 0.40397 0.096087
-0.25346 -0.10998 -1.0355 0.7769 0.18686 0.60125
-0.23489 -0.15385 -1.034 0.66208 0.46614 0.58683
-0.18025 -0.13586 -1.0724 0.20675 0.26562 0.94165
0.2454 0.1588 -0.89396 -0.5179 -0.57809 -0.63055
-0.29431 0.13369 -0.16175 -0.52244 -0.82094 0.23048
0.021392 0.11007 -0.0095099 -0.74702 -0.66453 -0.018961
0.011399 0.10423 -0.05318 -0.54515 -0.73147 0.40959
0.043235 0.078217 -0.028186 -0.87971 -0.47528 0.014776
-0.079218 0.10268 -0.066006 0.4276 -0.6731 0.6034
-0.06443 0.077844 -0.094173 0.29837 -0.55284 0.77804
-0.093059 0.046703 -0.097036 0.67057 -0.26507 0.69287
0.05776 0.031242 -0.065809 -0.90308 -0.31889 0.28768
0.050102 0.059603 -0.047485 -0.88575 -0.4455 0.13031
0.048617 0.072287 -0.044507 -0.90723 -0.40824 -0.10136
0.055131 0.065069 -0.07428 -0.91485 -0.39212 -0.096422
0.035042 0.10344 -0.077656 -0.82504 -0.56004 -0.075281
0.017165 0.12912 -0.12333 -0.70322 -0.71087 -0.011933
-0.0041049 0.14516 -0.080304 -0.59281 -0.80344 -0.055331
-0.058248 0.17121 -0.081493 -0.27029 -0.96138 -0.051879
-0.030727 0.15817 -0.040074 -0.43565 -0.89415 -0.10343
-0.060361 0.16312 -0.0024905 -0.26095 -0.95319 -0.15278
-0.0099734 0.14005 -0.0032327 -0.57278 -0.80805 -0.13777
-0.010304 0.13524 0.018453 -0.51532 -0.85196 -0.092742
-0.04031 0.14512 0.04509 -0.31766 -0.94092 -0.11729
-0.058002 0.14852 0.031733 -0.058152 -0.99465 0.085436
-0.093554 0.14763 0.046843 0.23381 -0.95109 0.2019
-0.096588 0.13938 0.017876 0.40301 -0.86687 0.29347
-0.094261 0.1436 0.019833 0.50435 -0.80983 0.29968
-0.094068 0.12384 -0.023049 0.52673 -0.7451 0.40912
-0.090395 0.1048 -0.059304 0.63549 -0.59269 0.49485
-0.073517 -0.044654 -0.052922 0.99628 0.062902 -0.058924
-0.076466 -0.042301 -0.077758 0.99346 0.088982 -0.071606
-0.067754 -0.084366 -0.086984 0.95679 0.29074 -0.0039473
-0.079616 -0.02491 -0.11973 0.99946 0.02663 -0.019243
-0.078753 -0.0056392 -0.16481 0.99799 -0.051678 0.036638
-0.074732 -0.051127 -0.17024 0.97691 0.20243 0.068399
-0.064459 -0.071004 -0.21833 0.93497 0.33517 0.11616
-0.060014 -0.092895 -0.17596 0.90274 0.41901 0.097444
-0.054958 -0.11187 -0.13418 0.87633 0.47622 0.072506
-0.049762 -0.12585 -0.09621 0.85639 0.51043 0.077828
-0.015279 -0.1662 -0.099226 0.63373 0.76785 0.093714
-0.032395 -0.15427 -0.075192 0.72912 0.66704 0.15311
0.010331 -0.18188 -0.078263 0.40965 0.81582 0.4082
-0.035637 -0.14193 -0.085618 0.70762 0.55202 0.44108
-0.033406 -0.13119 -0.099324 0.61555 0.449 0.64769
-0.048348 -0.047298 -0.10742 0.69127 0.0087521 0.72255
-0.067707 -0.038164 -0.076828 0.93534 -0.026833 0.35272
-0.0012083 -0.14932 -0.043583 0.011563 0.87129 0.49063
-0.081438 -0.10186 -0.037563 0.87901 0.34859 0.3253
-0.075974 -0.1001 -0.057657 0.87989 0.26114 0.39699
-0.07901 -0.11979 -0.028558 0.90302 0.33027 0.27473
-0.058441 -0.1631 -0.026964 0.78169 0.55582 0.2829
-0.45064 0.059049 -0.1038 0.98653 -0.11515 -0.11617
-0.12797 0.21813 -0.95751 -0.1491 -0.98718 -0.057016
-0.17934 0.21771 -0.94768 0.14912 -0.97863 -0.14157
-0.073876 0.18856 -0.9166 -0.50432 -0.76811 -0.39454
-0.079352 0.20426 -0.96696 -0.45351 -0.89097 0.022348
-0.10604 0.18745 -1.0358 -0.25203 -0.72046 0.64608
-0.14386 0.14008 -1.0698 -0.025527 -0.3044 0.9522
-0.15501 0.19262 -1.0378 0.0037703 -0.74623 0.66567
-0.2018 0.18843 -1.0346 0.24342 -0.7428 0.62369
-0.1958 0.13367 -1.0706 0.12401 -0.30183 0.94526
-0.24832 0.16744 -1.0291 0.51873 -0.6361 0.57122
-0.28343 0.12577 -1.0271 0.73845 -0.37103 0.56305
-0.28393 0.15873 -0.95655 0.77934 -0.62091 -0.084187
-0.27864 0.12733 -0.89787 0.72083 -0.39324 -0.57076
-0.25053 0.15875 -0.89396 0.51787 -0.57808 -0.63058
-0.23254 0.19717 -0.93825 0.46331 -0.85465 -0.23432
-0.12488 0.10282 0.58634 0.23268 -0.58329 -0.77822
-0.1052 0.11995 0.57773 0.13422 -0.57802 -0.80491
-0.14659 0.10061 0.57998 0.30658 -0.54981 -0.77699
-0.065632 0.12895 0.57378 0.0030485 -0.60487 -0.79632
-0.083692 0.13663 0.56882 0.029341 -0.55623 -0.83051
-0.069186 0.15368 0.55719 -0.036416 -0.5677 -0.82243
-0.10452 0.14692 0.5604 0.10476 -0.54358 -0.8328
-0.12461 0.16078 0.54836 0.19094 -0.55596 -0.80898
-0.15012 0.13797 0.55413 0.35348 -0.50943 -0.78456
-0.19576 0.12341 0.53062 0.67731 -0.42897 -0.59769
-0.19085 0.10968 0.54704 0.61784 -0.46821 -0.6317
-0.21498 0.095557 0.52167 0.73788 -0.54207 -0.40212
-0.18365 0.098472 0.56121 0.52382 -0.55499 -0.64622
-0.10637 0.1036 0.58962 0.19409 -0.67003 -0.71651
-0.094052 0.10475 0.5923 0.1691 -0.73161 -0.66042
-0.068642 0.11214 0.58707 0.057248 -0.71634 -0.6954
-0.045701 0.11533 0.58444 0.027469 -0.73395 -0.67864
-0.051357 0.11946 0.58119 0.0023214 -0.6474 -0.76215
-0.038885 0.1295 0.57294 0.0099191 -0.62495 -0.7806
0.10326 -0.19138 0.56253 -0.097758 0.93769 -0.33344
0.080287 -0.18186 0.58756 -0.065685 0.86664 -0.49459
0.11058 -0.15466 0.61598 -0.16502 0.67805 -0.71626
0.077068 -0.16074 0.6165 -0.13474 0.72405 -0.67646
0.086721 -0.13455 0.63584 -0.24094 0.56214 -0.79117
0.079892 -0.14886 0.62625 -0.36788 0.68595 -0.6278
0.1071 -0.12399 0.62277 -0.72443 0.5697 -0.38811
-0.14899 0.00088781 -1.0718 -0.10376 0.083242 0.99111
-0.12401 0.0089666 -1.0711 -0.14806 0.16974 0.9743
-0.11128 -0.014631 -1.0629 -0.29946 0.14192 0.94349
-0.13092 0.040743 -1.0762 -0.074487 0.10239 0.99195
-0.039012 -0.017705 -1.0072 -0.85526 0.11044 0.50629
-0.072293 -0.022507 -1.0422 -0.58314 0.1844 0.79117
-0.07961 -0.0068641 -1.0455 -0.49526 -0.27965 0.82251
-0.11254 -0.021886 -1.0636 -0.24361 -0.2448 0.93847
-0.11906 -0.044613 -1.0721 -0.12932 -0.22543 0.96564
-0.13991 -0.041953 -1.0725 -0.088677 -0.17162 0.98116
-0.16016 -0.059603 -1.0767 -0.015462 -0.12476 0.99207
-0.16437 -0.040456 -1.074 0.0012235 -0.1062 0.99434
-0.20726 -0.040766 -1.0675 0.31612 -0.021528 0.94848
-0.21137 -0.024306 -1.0689 0.24893 0.14978 0.95687
-0.17108 -0.0075684 -1.0737 -0.042719 0.047844 0.99794
-0.18086 0.018491 -1.0754 -0.024169 0.059687 0.99792
-0.22428 0.033088 -1.0734 0.21025 0.057566 0.97595
-0.19226 0.045111 -1.0771 0.039523 0.048259 0.99805
-0.19644 0.067823 -1.0777 0.076881 0.016039 0.99691
-0.16342 0.054738 -1.0776 -0.0052839 0.049916 0.99874
-0.12957 0.067832 -1.0775 -0.070693 0.010013 0.99745
0.065147 0.19042 0.65238 -0.44506 -0.84197 0.30498
0.046597 0.20269 0.65117 -0.36452 -0.87808 0.31
-0.06812 -0.021982 0.89879 0.3912 0.1782 -0.90289
-0.045221 -0.031158 0.90467 0.26547 0.21873 -0.93898
-0.065532 0.0022877 0.90284 0.38214 0.077023 -0.92089
-0.025203 -0.061613 0.89989 0.15845 0.34361 -0.92565
-0.022116 -0.037558 0.90804 0.12927 0.23884 -0.96241
-0.00012629 -0.031297 0.91064 0.0030829 0.21383 -0.97687
-0.020522 -0.015428 0.91263 0.11783 0.14608 -0.98223
-0.060057 0.024494 0.90604 0.3392 -0.023606 -0.94042
-0.080333 0.036134 0.89601 0.45608 -0.065582 -0.88752
-0.081098 0.066573 0.89083 0.44802 -0.20843 -0.86939
-0.099209 0.046414 0.88402 0.5573 -0.11406 -0.82244
-0.1172 0.054949 0.868 0.66201 -0.14938 -0.73446
-0.10687 0.021119 0.88012 0.607 -0.0054953 -0.79468
-0.11453 -0.0055346 0.87244 0.64769 0.1095 -0.75399
-0.091694 -0.013415 0.88772 0.52592 0.14398 -0.83826
-0.073478 -0.046923 0.88938 0.42906 0.29179 -0.85485
-0.079364 -0.071717 0.87607 0.46323 0.40106 -0.79029
-0.053177 -0.07888 0.88467 0.32145 0.43719 -0.83996
-0.029772 -0.10713 0.87464 0.19067 0.56865 -0.80018
-0.027505 -0.08584 0.88877 0.17361 0.46294 -0.86922
0.00010027 -0.080316 0.89418 0.0019473 0.43247 -0.90165
-0.11655 0.092532 -1.0758 -0.12748 -0.063165 0.98983
-0.17199 -0.17546 0.40978 0.38972 0.80765 0.44252
-0.17772 -0.18842 0.54001 0.17691 0.93604 -0.30419
-0.16375 -0.19797 0.49618 0.09047 0.99516 -0.038312
-0.18319 -0.19651 0.47468 0.15923 0.98722 0.0063484
-0.14966 -0.1956 0.45831 0.010599 0.98891 0.1481
-0.12579 -0.18342 0.41572 -0.17756 0.91797 0.35468
-0.16919 0.057633 0.66129 0.97001 -0.18192 0.16122
-0.16734 0.034854 0.63974 0.97716 -0.019787 0.21159
-0.16993 0.037985 0.65071 0.9791 -0.046108 0.1981
-0.17066 0.039328 0.65838 0.97066 -0.083461 0.22549
-0.17062 0.058917 0.66994 0.95675 -0.22304 0.18679
-0.16704 0.075403 0.67853 0.95469 -0.2744 0.1152
-0.16464 0.090497 0.69888 0.94471 -0.3158 0.088328
-0.16436 0.087961 0.68526 0.96152 -0.26895 0.056012
-0.15657 0.1121 0.6926 0.92574 -0.37701 -0.029446
-0.16321 0.092193 0.67756 0.97492 -0.22228 -0.011369
-0.16037 0.10669 0.67126 0.96808 -0.24697 -0.042825
-0.16415 0.084099 0.65288 0.98763 -0.1433 0.063683
-0.16012 0.088806 0.6248 0.9715 -0.14135 0.1903
-0.16435 0.067286 0.63449 0.98309 -0.10776 0.14806
-0.16271 0.052313 0.61748 0.97264 -0.073248 0.22045
-0.1668 0.042309 0.6374 0.98865 -0.035383 0.14599
-0.16534 0.016931 0.63503 0.97746 0.089208 0.19136
0.039984 0.20759 0.66724 -0.33086 -0.94365 -0.0070758
0.047698 0.2045 0.66882 -0.28189 -0.95305 -0.11063
0.054615 0.2024 0.66702 -0.42601 -0.89005 -0.16225
-0.34028 0.21931 -0.098602 -0.066377 -0.9789 -0.19325
-0.41743 0.19339 -0.095248 0.63347 -0.71788 -0.28873
-0.36749 0.2068 -0.069221 0.2307 -0.91234 -0.33825
-0.4198 0.18027 -0.077008 0.70077 -0.62995 -0.3348
0.040118 -0.0012192 -0.86869 0.87583 -0.16307 -0.45423
0.071205 0.019272 -0.8359 0.63367 -0.27173 -0.72431
0.15052 0.029148 -0.81044 -0.072557 -0.48691 -0.87043
0.15224 0.052128 -0.83488 -0.088015 -0.84367 -0.52961
0.22848 0.0079852 -0.84889 -0.77471 -0.43951 -0.45458
0.25121 -0.023089 -0.87707 -0.948 -0.26244 -0.18004
0.24779 -0.024366 -0.86349 -0.89448 -0.13348 -0.42673
0.25666 -0.042002 -0.88454 -0.91089 0.054937 -0.40897
-0.026671 0.12436 0.57763 0.044208 -0.64597 -0.76208
-0.02341 0.14325 0.56198 -0.00025832 -0.68531 -0.72825
-0.010045 0.15762 0.54707 -0.013205 -0.78068 -0.62479
-0.017211 0.16734 0.53344 -0.071704 -0.80795 -0.58487
-0.0036051 0.1797 0.51149 -0.12099 -0.87616 -0.4666
0.0038005 0.17542 0.51433 -0.33243 -0.76583 -0.55044
0.023158 0.1853 0.48376 -0.52412 -0.74087 -0.42001
0.0039909 0.17489 0.51698 -0.43315 -0.67382 -0.59862
-0.013194 0.19396 0.50651 -0.37459 -0.74638 -0.55009
-0.032587 0.16969 0.54019 -0.22404 -0.62664 -0.74641
-0.064853 0.17585 0.54083 -0.060473 -0.63759 -0.768
0.059504 0.19052 0.58151 -0.39081 -0.8806 0.26799
0.088093 0.16671 0.56241 -0.52101 -0.72825 0.4452
0.072896 0.17308 0.55581 -0.47103 -0.77429 0.42263
0.11607 0.16475 0.5971 -0.64216 -0.67523 0.36291
0.096904 0.1685 0.57518 -0.53754 -0.727 0.42723
-0.26694 -0.059873 -1.0223 0.85497 0.059614 0.51525
-0.26803 -0.056141 -1.0209 0.82689 0.20641 0.52311
-0.2818 -0.055019 -0.94012 0.93397 0.30671 -0.1834
-0.27056 -0.048674 -1.0213 0.78509 0.33228 0.52271
-0.27462 -0.029834 -1.0284 0.73946 0.35174 0.574
-0.29752 -0.02116 -0.94775 0.9184 0.36178 -0.16017
-0.28537 -0.0017193 -1.0308 0.75836 0.27989 0.58868
-0.29612 0.034755 -1.0294 0.80232 0.12238 0.58422
0.05607 -0.11603 -0.082797 -0.76801 0.34069 0.5423
0.062255 -0.074047 -0.089653 -0.78017 0.15757 0.60539
0.075703 -0.10091 -0.057012 -0.88032 0.26928 0.39054
0.048747 -0.047057 -0.10742 -0.6914 0.0065287 0.72245
-0.027091 -0.043414 -0.13108 0.14404 0.23961 0.96012
0.024055 -0.071201 -0.11625 -0.35149 0.34737 0.86936
-0.00034918 -0.11104 -0.095899 0.0029718 0.67893 0.73419
0.079869 -0.10449 -0.037964 -0.86662 0.37487 0.32931
0.078432 -0.11923 -0.03029 -0.90038 0.32469 0.28964
0.078581 -0.1407 -0.0027653 -0.88741 0.41649 0.19757
0.058039 -0.1622 -0.02999 -0.7784 0.54682 0.30834
0.010301 -0.20645 -0.028041 -0.45491 0.83731 0.30326
0.02139 -0.18231 -0.061892 -0.52727 0.68733 0.49956
-0.023554 -0.18988 -0.079867 -0.24862 0.75291 0.60936
0.021989 -0.15949 -0.085454 -0.53533 0.58694 0.60739
0.032543 -0.13245 -0.099006 -0.60947 0.46187 0.64438
0.033738 -0.14315 -0.086276 -0.69366 0.56444 0.44748
0.055948 -0.084196 -0.095052 -0.79568 0.17751 0.57912
0.06713 -0.037676 -0.078631 -0.92829 -0.031365 0.37053
-0.31593 0.050093 -0.94364 0.98005 0.060846 -0.18919
-0.29859 0.080166 -1.0259 0.81864 -0.12123 0.56136
-0.23711 0.086749 -1.0696 0.32583 -0.073648 0.94255
-0.19544 0.09526 -1.0776 0.083677 -0.069988 0.99403
-0.16419 0.11583 -1.0759 -0.0073844 -0.16321 0.98656
-0.13461 0.10928 -1.0757 -0.061689 -0.11025 0.99199
-0.093713 0.11759 -1.0685 -0.26997 -0.18942 0.94405
-0.029935 0.12053 0.58371 0.14381 -0.975 -0.16941
-0.027726 0.12315 0.57445 0.084926 -0.91218 -0.40088
-0.0077101 0.12318 0.57446 0.014071 -0.83397 -0.55164
-0.019021 0.11829 0.58247 0.016198 -0.74296 -0.66914
-0.13374 0.048098 0.60111 0.89785 -0.43245 0.082802
-0.13086 -0.021722 0.57945 0.78964 0.32458 0.52069
-0.12666 0.02788 0.56569 0.83582 -0.15148 0.52769
-0.090281 -0.021524 0.53752 0.45106 0.4635 0.7627
-0.085275 0.044646 0.52964 0.55572 -0.23351 0.7979
-0.047016 0.041301 0.50814 0.32013 -0.13358 0.93791
-0.044367 0.11568 0.5729 0.2897 -0.93689 0.19572
-0.016275 0.12262 0.5797 0.10408 -0.98705 -0.12205
-0.085111 0.25067 0.43694 -0.12543 -0.96639 -0.22442
-0.1151 0.23976 0.4674 0.090785 -0.8886 -0.4496
-0.14408 0.21999 0.48846 0.2998 -0.76877 -0.56491
-0.11227 0.22363 0.49339 0.070888 -0.7859 -0.61427
-0.099695 0.2068 0.5131 0.017451 -0.72121 -0.6925
-0.086754 0.22712 0.48787 -0.079147 -0.82166 -0.56445
-0.06118 0.22324 0.48725 -0.19602 -0.82712 -0.52673
-0.067719 0.23908 0.46035 -0.22223 -0.8963 -0.38374
-0.050428 0.24282 0.42751 -0.34473 -0.92576 -0.15535
-0.028298 0.23291 0.42985 -0.40235 -0.90056 -0.16464
-0.043763 0.24252 0.40507 -0.35375 -0.93399 -0.050124
-0.031263 0.23831 0.39225 -0.3684 -0.92966 0.0047166
-0.073012 0.24608 0.36212 -0.14048 -0.95149 0.27375
-0.07818 0.25227 0.39307 -0.16768 -0.98157 0.091682
-0.10999 0.25473 0.39385 0.051055 -0.99134 0.12097
-0.18659 0.22147 0.38283 0.63024 -0.75336 0.18774
-0.14632 0.24862 0.41102 0.3298 -0.94395 -0.01342
-0.18739 0.22198 0.43083 0.65155 -0.73974 -0.16811
-0.095139 0.15132 0.064717 0.14044 -0.98731 0.074103
-0.066366 0.15032 0.065322 -0.16339 -0.97979 -0.11538
-0.06289 0.15226 0.056209 -0.26396 -0.94241 -0.20539
-0.085311 0.16299 0.029303 -0.1294 -0.97404 -0.18572
0.19538 0.030551 -0.040591 0.93867 0.15051 0.31024
0.22014 -0.025041 -0.046147 0.72385 0.59629 0.34711
0.2034 -0.01028 -0.033518 0.81315 0.40921 0.41392
0.24665 -0.049967 -0.045671 0.51522 0.82703 0.2249
0.31688 -0.067117 -0.027185 -0.14125 0.97645 0.16308
0.39112 -0.024975 0.00025278 -0.78147 0.62153 -0.054848
0.34024 -0.066033 -0.015755 -0.38743 0.88351 0.26326
0.34426 -0.073354 0.021644 -0.47295 0.85394 0.21703
0.27703 -0.081339 0.0038169 0.094797 0.92756 0.36145
0.23976 -0.084564 0.030883 0.31208 0.84882 0.42674
0.21911 -0.051535 -0.0050516 0.59383 0.67474 0.43828
0.18737 -0.0052106 -0.0045415 0.84433 0.31152 0.43597
0.17013 -0.0021932 0.025123 0.84582 0.22886 0.48188
0.17804 0.031697 0.00011826 0.90985 0.055095 0.41127
0.1763 0.067427 0.0095866 0.91348 -0.19962 0.35455
0.1869 0.067231 -0.020372 0.93339 -0.13752 0.33147
0.19778 0.10276 -0.021918 0.90449 -0.36982 0.21244
0.19155 0.066243 -0.03334 0.96002 -0.090672 0.26484
0.19197 0.060484 -0.039314 0.97897 -0.02527 0.20245
0.20177 0.10123 -0.05448 0.94174 -0.27036 0.20006
0.19725 0.051638 -0.062094 0.96332 0.040913 0.26523
0.20824 0.05257 -0.093007 0.91423 0.024252 0.40446
0.21121 0.0037057 -0.072838 0.87498 0.39215 0.28394
0.24531 -0.034836 -0.089826 0.65128 0.69181 0.31182
0.25762 -0.053196 -0.055053 0.47513 0.86378 0.16774
0.25079 -0.14895 0.24 -0.14983 0.98802 0.036993
0.28267 -0.14072 0.23004 -0.37292 0.92532 0.068687
0.29114 -0.1361 0.25345 -0.44917 0.89199 -0.051084
0.26972 -0.14072 0.20555 -0.27229 0.94061 0.20277
0.3116 -0.12333 0.22483 -0.56601 0.82142 0.070085
0.33635 -0.10365 0.22994 -0.69659 0.71381 -0.072297
0.33721 -0.10011 0.24936 -0.7509 0.65348 -0.09545
0.3489 -0.079087 0.2686 -0.85278 0.49464 -0.16763
0.32531 -0.11063 0.26115 -0.69183 0.71418 -0.1064
0.30248 -0.12922 0.26744 -0.55873 0.82897 -0.024929
0.31222 -0.12067 0.28892 -0.66502 0.74619 -0.030842
0.27806 -0.14277 0.27556 -0.41838 0.90643 0.057847
0.25258 -0.15444 0.29175 -0.27698 0.95517 0.10458
0.23923 -0.15277 0.26266 -0.13691 0.98045 0.1413
0.19806 -0.1499 0.2501 0.16026 0.96168 0.22248
0.22377 -0.15129 0.24278 0.017401 0.9914 0.12971
0.20681 -0.1475 0.22775 0.17725 0.97706 0.11809
0.16648 -0.1315 0.21839 0.4754 0.86134 0.17911
0.19081 -0.14002 0.20426 0.3037 0.92234 0.23888
0.17228 -0.12371 0.18279 0.43925 0.8266 0.35184
0.21947 -0.14111 0.1901 0.10088 0.94504 0.311
0.24782 -0.14099 0.18739 -0.076634 0.97119 0.22564
-0.13599 0.0012629 0.85149 0.76577 0.081551 -0.63792
-0.12353 -0.032529 0.85744 0.70289 0.2279 -0.6738
-0.13217 -0.058525 0.83557 0.75111 0.33776 -0.56723
-0.10699 -0.065079 0.85928 0.61939 0.37042 -0.6922
-0.086214 -0.095714 0.85673 0.50928 0.51379 -0.6904
-0.27878 -0.023934 -0.57002 0.981 -0.17285 -0.088123
-0.27063 -0.0030074 -0.5407 0.95092 -0.28139 -0.12876
-0.26813 0.01385 -0.57403 0.91528 -0.39833 -0.060007
-0.26937 -0.01929 -0.5102 0.96761 -0.17357 -0.18333
-0.25921 0.017191 -0.51374 0.90348 -0.39944 -0.1555
-0.24298 0.037802 -0.48659 0.81733 -0.53711 -0.20852
-0.23304 0.057886 -0.51765 0.72301 -0.68047 -0.11926
-0.19362 0.087478 -0.52039 0.45127 -0.88788 -0.089523
-0.21857 0.074856 -0.54986 0.59528 -0.80218 -0.04636
-0.1987 0.086406 -0.58585 0.44002 -0.89673 0.047543
-0.24081 0.055985 -0.5796 0.72585 -0.68777 -0.010717
-0.25902 0.032571 -0.61659 0.83536 -0.548 0.043172
-0.23931 0.048839 -0.66328 0.69535 -0.70532 0.13787
-0.26855 0.0091719 -0.65568 0.8983 -0.43042 0.08831
-0.27194 -0.01125 -0.70096 0.92642 -0.35879 0.11409
-0.2812 -0.028146 -0.6489 0.97725 -0.20793 0.041775
-0.28521 -0.066515 -0.64457 0.99984 0.016272 0.0068693
-0.2839 -0.044264 -0.605 0.99579 -0.082701 -0.039484
-0.281 -0.060979 -0.56629 0.99289 0.033514 -0.11421
-0.27543 -0.099581 -0.5639 0.96429 0.22711 -0.13626
-0.27507 -0.076401 -0.53386 0.9756 0.13184 -0.17558
-0.26591 -0.091382 -0.50434 0.94923 0.22634 -0.2185
-0.27146 -0.055203 -0.50736 0.97907 0.028927 -0.20146
-0.26556 -0.033462 -0.48252 0.96774 -0.088663 -0.23582
0.12144 -0.059476 0.65326 -0.29284 0.063664 -0.95404
0.13797 -0.077809 0.6464 -0.27618 0.15687 -0.94822
0.14328 -0.054031 0.64741 -0.2474 0.042024 -0.968
0.11472 -0.10629 0.646 -0.2329 0.35219 -0.90649
0.13797 -0.1177 0.63486 -0.2521 0.42082 -0.87141
0.14793 -0.14337 0.61591 -0.23842 0.60277 -0.76147
0.14312 -0.17553 0.58023 -0.19632 0.84579 -0.49607
0.17001 -0.14817 0.60483 -0.22798 0.65441 -0.72096
0.18899 -0.16264 0.58295 -0.25243 0.7604 -0.59839
0.19815 -0.12106 0.61493 -0.3094 0.46999 -0.82667
0.23518 -0.10709 0.60302 -0.53821 0.38377 -0.75037
0.20389 -0.08133 0.62807 -0.34169 0.22127 -0.9134
0.20068 -0.038685 0.63371 -0.30719 -0.056115 -0.94999
0.18416 -0.043399 0.63833 -0.26671 -0.040467 -0.96293
0.17111 -0.0070171 0.63593 -0.31356 -0.26943 -0.91054
0.16092 -0.044472 0.6442 -0.22557 -0.0012207 -0.97423
0.13951 -0.026743 0.64723 -0.21562 -0.10459 -0.97086
0.13144 0.0031239 0.6431 -0.21569 -0.26734 -0.93915
0.12038 -0.0077315 0.64945 -0.27369 -0.2251 -0.9351
0.11129 0.0013448 0.64825 -0.41182 -0.30032 -0.86036
0.11538 -0.025011 0.65281 -0.45751 -0.13069 -0.87955
0.12099 -0.055241 0.65094 -0.66793 0.096822 -0.7379
0.11375 -0.056254 0.65496 -0.45573 0.079341 -0.88657
0.10513 -0.075536 0.65573 -0.39122 0.18053 -0.90241
0.098074 -0.10426 0.65056 -0.33518 0.36525 -0.86847
0.18766 -0.18125 -0.097903 -0.47629 0.8774 0.05758
0.20949 -0.16524 -0.1404 -0.60882 0.7911 0.059119
0.22714 -0.15244 -0.09665 -0.6963 0.7167 0.0388
0.2276 -0.14343 -0.18569 -0.72108 0.68772 0.084096
0.25383 -0.1102 -0.18535 -0.84773 0.52399 0.082341
0.26721 -0.092913 -0.13952 -0.9135 0.40403 0.047737
0.27563 -0.070401 -0.090696 -0.96648 0.25599 -0.0194
0.25715 -0.1151 -0.094066 -0.85953 0.51102 0.0088833
0.244 -0.13428 -0.051653 -0.81084 0.58469 -0.026061
0.25181 -0.11376 -0.0060629 -0.88997 0.44144 -0.11437
0.22926 -0.15142 -0.014767 -0.77621 0.62951 -0.034782
0.21536 -0.16671 0.013185 -0.73756 0.67451 -0.032331
0.19418 -0.18332 -0.025526 -0.57296 0.8166 0.069908
0.15074 -0.20302 -0.043199 -0.2984 0.9344 0.19456
0.16765 -0.19411 -0.064085 -0.36961 0.92361 0.10164
0.13881 -0.19905 -0.096933 -0.20998 0.97632 0.051992
0.087018 -0.20325 -0.095675 0.041663 0.99824 0.042237
0.064276 0.1497 0.51833 -0.44494 -0.60359 0.6616
-0.13121 0.15348 0.70687 0.7498 -0.602 -0.27458
-0.16632 0.091844 0.71932 0.93684 -0.34602 0.05101
-0.15734 0.11324 0.71611 0.91287 -0.40689 0.033236
-0.14449 0.13864 0.72568 0.85276 -0.52215 -0.01258
-0.14357 0.13889 0.7062 0.84295 -0.53432 0.06281
-0.12549 0.16018 0.69536 0.74181 -0.66939 0.040386
-0.14221 0.13997 0.69834 0.83747 -0.54642 0.0087161
-0.10154 0.18037 0.70191 0.53877 -0.83047 -0.14158
0.018833 0.14241 -0.062571 -0.13334 -0.84602 0.5162
0.040165 0.1555 -0.022395 -0.2742 -0.90426 0.3273
0.057045 0.12859 -0.063643 -0.41353 -0.75099 0.51479
0.017944 0.1722 0.023698 -0.10745 -0.97711 0.18361
0.060472 0.16163 0.020992 -0.33747 -0.91241 0.23157
0.075537 0.16635 0.071286 -0.32952 -0.93447 0.13487
0.09531 0.1433 0.019665 -0.51079 -0.80691 0.29663
0.098177 0.13864 0.017546 -0.41745 -0.85966 0.29449
0.095995 0.12257 -0.023763 -0.54214 -0.7326 0.41157
0.080598 0.10106 -0.067078 -0.44011 -0.65713 0.61194
0.09132 0.10319 -0.060923 -0.64099 -0.57681 0.50637
0.069346 0.095435 -0.089898 -0.50565 -0.53895 0.67369
0.07386 0.064925 -0.10541 -0.54306 -0.3591 0.75904
0.044479 0.083501 -0.11185 -0.31872 -0.48872 0.81214
-0.00011331 0.089184 -0.11714 0.00052312 -0.51305 0.85836
-0.00073701 0.12055 -0.091932 0.0067401 -0.7145 0.6996
-0.020498 0.14242 -0.061816 0.15126 -0.84614 0.51105
-0.057807 0.12881 -0.061923 0.4249 -0.75309 0.50231
-0.04091 0.15518 -0.02185 0.2856 -0.90098 0.32661
-0.060443 0.16141 0.021122 0.34132 -0.9101 0.23499
-0.018289 0.17213 0.023829 0.11263 -0.97633 0.18466
-3.8218e-005 0.17847 0.072796 8.2177e-005 -0.99887 0.047598
0.064574 0.077141 -0.094512 -0.30099 -0.54621 0.78171
0.039774 0.045245 -0.12103 -0.11919 -0.38417 0.91554
0.092906 0.046273 -0.097189 -0.67024 -0.26115 0.69468
0.093998 0.14743 0.046683 -0.23929 -0.94934 0.20368
0.058307 0.1485 0.031612 0.053983 -0.99476 0.086873
0.26637 -0.073604 -0.00087646 -0.95567 0.24818 -0.15843
0.27743 -0.048026 -0.042904 -0.98739 0.12245 -0.10031
0.25261 -0.097454 0.033422 -0.92783 0.32945 -0.17492
0.2817 -0.024889 -0.087004 -0.999 0.015793 -0.041775
0.27759 0.018605 -0.084531 -0.98118 -0.18534 -0.054238
0.26538 0.060192 -0.083802 -0.92733 -0.37108 -0.048627
0.24715 -0.059909 0.097085 -0.95185 0.14709 -0.26896
0.24975 -0.078905 0.069609 -0.94742 0.22567 -0.22689
0.24054 -0.11463 0.062111 -0.90827 0.37455 -0.18644
-0.1418 -0.030954 0.60267 0.80805 0.45198 0.37785
0.056459 0.11449 0.58989 -0.27022 -0.93988 -0.20882
0.094878 0.093299 0.60112 -0.58451 -0.80992 -0.04873
0.038258 0.12155 0.57585 -0.10784 -0.94665 -0.30368
0.037125 0.12022 0.57878 -0.14919 -0.96104 -0.23271
0.029818 0.12042 0.58365 -0.14843 -0.97439 -0.16894
0.016397 0.12256 0.57962 -0.10856 -0.98667 -0.12125
0.12995 -0.021057 0.57783 -0.78203 0.31675 0.53675
0.1257 0.027544 0.56486 -0.83112 -0.14936 0.53566
0.13263 0.04954 0.60157 -0.89007 -0.44827 0.082662
0.14616 0.0047211 0.60061 -0.98968 -0.11466 0.085936
0.13383 0.052494 0.597 -0.89347 -0.44517 -0.059468
0.14019 0.028474 0.59029 -0.95413 -0.24132 -0.17719
0.1034 0.091077 0.58921 -0.63527 -0.74736 -0.19464
0.070911 0.11317 0.57856 -0.35434 -0.89259 -0.2788
0.22811 0.1205 0.2885 0.031207 -0.91536 -0.40142
0.21688 0.1293 0.26827 0.15264 -0.91771 -0.36675
0.18591 0.11768 0.27315 0.33646 -0.89493 -0.29308
0.256 0.13748 0.2494 -0.082763 -0.93733 -0.33847
0.20384 0.13746 0.23113 0.27821 -0.93654 -0.21327
0.18875 0.13828 0.19033 0.42678 -0.90175 -0.068679
0.15683 0.11681 0.20937 0.60806 -0.79138 -0.063151
0.12249 0.078621 0.18809 0.84672 -0.52605 0.079561
0.13007 0.090291 0.22679 0.76583 -0.63882 -0.073566
0.11317 0.062967 0.23431 0.87111 -0.49105 -0.0058878
0.14341 0.098033 0.25313 0.64685 -0.7483 -0.14707
0.1586 0.10678 0.26779 0.49279 -0.86277 -0.11305
0.1337 0.089121 0.26673 0.63459 -0.77005 0.06577
0.17157 0.11104 0.28235 0.3464 -0.93684 -0.048398
0.18078 0.11385 0.3062 0.23129 -0.97224 -0.035345
0.20792 0.11805 0.29347 0.085344 -0.98947 -0.11687
0.24718 0.11453 0.30444 -0.19266 -0.96422 -0.18211
0.2378 0.11865 0.29345 -0.080085 -0.95614 -0.28176
0.27202 0.10935 0.29759 -0.27661 -0.84634 -0.45518
0.31155 0.086247 0.30112 -0.56494 -0.68252 -0.46369
0.31121 0.096152 0.29018 -0.50959 -0.69119 -0.51243
0.34728 0.078621 0.26473 -0.72321 -0.52855 -0.44453
0.30677 0.11688 0.26109 -0.44076 -0.79371 -0.41923
0.29363 0.13816 0.22603 -0.3007 -0.90166 -0.31078
0.044379 -0.041426 -0.51243 -0.99652 -0.045096 -0.070154
0.040977 -0.058573 -0.48172 -0.98549 0.064339 -0.15704
0.041039 -0.082273 -0.50984 -0.97658 0.19742 -0.085523
0.036419 -0.037369 -0.45857 -0.97932 -0.054755 -0.19475
0.033049 -0.075043 -0.45437 -0.95678 0.18206 -0.22676
0.022109 -0.092467 -0.43088 -0.89771 0.32627 -0.29607
0.018734 -0.11388 -0.449 -0.86164 0.42657 -0.27498
-0.0031339 -0.14386 -0.44396 -0.71927 0.61422 -0.32462
0.01467 -0.13476 -0.47521 -0.82324 0.52666 -0.21192
0.0078564 -0.15295 -0.50373 -0.7924 0.59062 -0.15254
0.028182 -0.12014 -0.50708 -0.90082 0.42045 -0.10838
0.037169 -0.10388 -0.54045 -0.95003 0.31004 -0.036207
0.02983 -0.12455 -0.57617 -0.92104 0.3887 0.024327
0.041318 -0.08779 -0.57876 -0.97706 0.20698 0.050047
0.03869 -0.073966 -0.62805 -0.98268 0.11053 0.14873
0.044941 -0.048794 -0.58178 -0.99737 -0.018893 0.069968
0.039052 -0.0083921 -0.58442 -0.96091 -0.26377 0.084182
0.043842 -0.024032 -0.54622 -0.98737 -0.15841 0.00074944
0.037778 -0.0013597 -0.51575 -0.95539 -0.29099 -0.050469
0.018989 0.038889 -0.51855 -0.83075 -0.55541 -0.037134
0.026947 0.02082 -0.4878 -0.89247 -0.43427 -0.12206
0.0085867 0.041392 -0.45957 -0.77455 -0.59706 -0.20879
0.029059 0.0032135 -0.46026 -0.92812 -0.32004 -0.19016
0.029392 -0.013527 -0.43879 -0.94851 -0.213 -0.23445
-0.13521 0.085308 0.2597 0.25289 0.11831 0.96024
-0.11165 0.093462 0.25694 0.20783 -0.018055 0.978
-0.086029 0.1438 0.26541 0.14487 -0.4847 0.8626
-0.072538 0.18881 0.31433 0.1635 -0.95425 0.25037
-0.13076 0.16467 0.3078 0.53618 -0.79998 0.26935
-0.14352 0.14894 0.28451 0.64285 -0.70821 0.29187
-0.090672 -0.18317 -0.28138 -0.10264 0.97222 0.21035
-0.1386 -0.18172 -0.28211 0.17711 0.96449 0.19595
-0.10665 -0.17569 -0.32116 -0.01612 0.97697 0.21276
-0.17231 -0.18022 -0.23324 0.41124 0.90265 0.1269
-0.18997 -0.16238 -0.27911 0.52571 0.8349 0.16303
-0.22519 -0.13223 -0.2754 0.73014 0.66985 0.13488
-0.20267 -0.1446 -0.31977 0.6099 0.76837 0.19399
-0.21449 -0.12449 -0.34922 0.70853 0.68415 0.173
-0.1722 -0.15466 -0.35229 0.42692 0.88794 0.17116
-0.14989 -0.16075 -0.3749 0.28476 0.95606 0.069666
-0.1226 -0.16779 -0.35175 0.099988 0.98074 0.1678
-0.089427 -0.16855 -0.34825 -0.064349 0.98717 0.14611
-0.089069 -0.16652 -0.36989 -0.026504 0.99836 0.050776
-0.060383 -0.16565 -0.34312 -0.19361 0.97326 0.12364
-0.016767 -0.15015 -0.33802 -0.49976 0.85839 0.11576
-0.03539 -0.16439 -0.30993 -0.37037 0.91397 0.1658
-0.0087973 -0.15742 -0.27021 -0.54059 0.82413 0.16903
-0.052015 -0.17601 -0.27666 -0.292 0.93536 0.19961
-0.068251 -0.18987 -0.23555 -0.2028 0.96198 0.18291
-0.03943 -0.1894 -0.18663 -0.35109 0.92826 0.12277
-0.092964 -0.20035 -0.18644 -0.04172 0.99378 0.10329
-0.11796 -0.20253 -0.1375 0.11075 0.99332 0.032524
-0.14637 -0.19404 -0.18504 0.26538 0.96098 0.078094
-0.19466 -0.17214 -0.18481 0.54671 0.83397 0.074893
0.051716 0.20135 0.6766 -0.33477 -0.94093 -0.050892
0.027933 0.0050895 -0.63165 -0.916 -0.35972 0.17762
0.021051 0.032408 -0.58693 -0.84414 -0.52748 0.095849
-0.012434 0.069521 -0.58848 -0.61626 -0.78085 0.10249
0.0063059 0.055718 -0.55199 -0.73851 -0.67356 0.030353
-0.013904 0.073766 -0.52018 -0.59843 -0.80038 -0.035718
-0.050426 0.093767 -0.52434 -0.36994 -0.92902 -0.007817
-0.024079 0.078423 -0.49608 -0.56582 -0.82176 -0.067495
-0.014571 0.06945 -0.48386 -0.70488 -0.70805 0.042595
-0.0035275 0.056234 -0.46945 -0.74041 -0.66075 -0.12329
0.0056324 0.037208 -0.44485 -0.81941 -0.53887 -0.19539
0.0034404 0.18652 0.49582 -0.027854 -0.92759 -0.37256
0.000228 0.17152 0.52469 -0.02916 -0.86425 -0.50222
0.0092546 0.15815 0.5464 0.010654 -0.78608 -0.61803
0.022347 0.14326 0.56197 0.00028189 -0.68554 -0.72803
0.013912 0.16842 0.53149 0.09867 -0.81897 -0.56529
-0.0068809 0.17465 0.51352 0.36165 -0.75848 -0.54214
-0.0018765 0.18402 0.49946 0.18161 -0.89545 -0.40643
-0.010603 0.1945 0.46092 0.14602 -0.9664 -0.21152
-0.045534 0.18776 0.42925 0.54399 -0.83552 -0.077296
-0.0050817 0.19874 0.4179 0.035677 -0.99909 0.023464
0.015131 0.1924 0.3815 -0.17578 -0.9742 0.14154
0.051505 0.18196 0.41256 -0.61959 -0.78462 0.021979
0.051665 0.1817 0.39365 -0.71363 -0.6913 0.11327
0.043766 0.18758 0.43925 -0.64878 -0.74349 -0.16221
0.018366 0.20593 0.44571 -0.53238 -0.81295 -0.23596
-0.010661 -0.06079 -0.93182 -0.98316 -0.1693 -0.06875
-0.012791 -0.11959 -0.92865 -0.96468 0.24254 -0.10285
-0.0075514 -0.091798 -0.96081 -0.9969 0.03249 0.071718
-0.020029 -0.13001 -0.90742 -0.93604 0.3117 -0.16335
-0.035594 -0.16703 -0.92422 -0.80475 0.57746 -0.13758
-0.03678 -0.1609 -1.0059 -0.78958 0.48157 0.38034
-0.066548 -0.12311 -1.0571 -0.53898 0.19042 0.82051
-0.021059 -0.11523 -1.0055 -0.90462 0.16546 0.39279
-0.019122 -0.068523 -1.0043 -0.91477 -0.11066 0.38853
-0.065505 -0.052874 -1.0557 -0.53071 -0.20411 0.82261
-0.026295 -0.03021 -1.0024 -0.87717 -0.28867 0.38371
-0.036024 -0.0075773 -1.0028 -0.83634 -0.33835 0.43133
-0.021389 -0.021252 -0.94246 -0.9591 -0.27637 -0.061238
-0.027588 -0.01734 -0.91165 -0.94478 -0.23394 -0.2295
-0.022447 -0.025559 -0.91996 -0.93176 -0.33011 -0.1512
-0.019088 -0.044423 -0.90145 -0.93954 -0.26583 -0.21585
-0.023323 -0.035958 -0.9001 -0.93553 -0.3457 -0.072613
-0.015125 -0.081818 -0.90027 -0.98938 -0.02443 -0.14328
-0.01862 -0.12483 -0.89652 -0.95741 0.28498 0.046423
0.11584 0.018809 0.64136 -0.2323 -0.3781 -0.89614
0.1464 0.018524 0.63444 -0.24629 -0.36449 -0.89805
0.14577 0.048505 0.62028 -0.30475 -0.48626 -0.81895
0.11683 0.0465 0.62923 -0.19188 -0.41494 -0.88939
0.087916 0.067265 0.62467 -0.16487 -0.48574 -0.85842
0.097256 0.058594 0.62488 -0.35356 -0.51117 -0.78339
0.1204 0.035832 0.62333 -0.67674 -0.36798 -0.63767
0.1047 0.035455 0.63539 -0.3461 -0.4317 -0.83298
0.10812 0.023202 0.6404 -0.37302 -0.43334 -0.82041
0.1182 0.015004 0.6374 -0.64007 -0.38877 -0.6627
-0.21157 0.093785 -0.37044 0.72967 -0.66105 0.17488
-0.22523 0.077297 -0.37255 0.7972 -0.57011 0.19861
-0.23267 0.069035 -0.36696 0.80371 -0.52507 0.2799
-0.2254 0.072935 -0.38725 0.81416 -0.55033 0.18517
-0.21602 0.074684 -0.41769 0.7938 -0.56074 0.2355
-0.23396 0.042583 -0.41553 0.90393 -0.34693 0.2501
-0.23023 0.020293 -0.44918 0.92874 -0.17133 0.32876
-0.24262 -0.0031782 -0.41631 0.95734 -0.022718 0.28806
-0.23927 -0.023883 -0.42083 0.94806 0.08471 0.3066
-0.25209 -0.022438 -0.38195 0.95654 0.070169 0.28303
-0.25556 -0.054032 -0.34851 0.93587 0.26496 0.23225
-0.26245 -0.011178 -0.34836 0.96976 0.0030938 0.24404
-0.26966 0.0055818 -0.3093 0.98275 -0.099348 0.15599
-0.25532 0.034963 -0.34727 0.92195 -0.29608 0.24968
-0.23933 0.069745 -0.35044 0.8284 -0.47773 0.29247
-0.2434 0.082165 -0.31053 0.84167 -0.50481 0.19172
-0.2192 0.097251 -0.35162 0.72366 -0.61371 0.31573
-0.19088 0.12551 -0.34912 0.56688 -0.76643 0.30204
-0.19335 0.11238 -0.37224 0.60216 -0.71326 0.3587
-0.16177 0.1309 -0.37452 0.42701 -0.86698 0.2569
-0.19548 0.10959 -0.37224 0.64704 -0.7341 0.20598
-0.18578 0.11853 -0.37376 0.58883 -0.7985 0.12518
0.016573 0.012893 -0.44659 -0.94365 -0.33037 -0.019685
0.02571 -0.0048094 -0.4423 -0.95141 -0.3024 -0.058155
-0.2494 0.094652 -0.1538 -0.77475 -0.2376 0.58593
-0.24404 0.095252 -0.14576 -0.79624 -0.18898 0.57471
-0.24612 0.096727 -0.14868 -0.79725 -0.099048 0.59547
-0.21442 0.1195 -0.080036 -0.89099 -0.34465 0.29555
-0.21832 0.08749 -0.10777 -0.86739 -0.15577 0.47263
-0.20687 0.050825 -0.09181 -0.91424 0.02425 0.40445
-0.26507 0.10463 -0.16809 -0.70159 -0.33191 0.63057
-0.26399 0.10575 -0.16873 -0.72532 -0.14425 0.67313
0.11078 0.1425 0.25956 -0.15299 -0.27564 0.94901
0.067052 0.12135 0.25422 0.078543 -0.13219 0.98811
0.082646 0.15772 0.26229 0.010445 -0.39162 0.92007
0.023735 0.13596 0.26702 0.3133 -0.288 0.90493
-0.014694 0.16358 0.30356 0.5124 -0.54908 0.66027
0.0096506 0.16082 0.28295 0.43077 -0.44006 0.7879
0.025598 0.19422 0.29919 0.36571 -0.64684 0.66922
0.052337 0.17408 0.27459 0.18544 -0.50515 0.84288
0.097797 0.1937 0.28528 -0.090441 -0.61887 0.78027
0.098985 0.22318 0.31506 -0.081311 -0.80153 0.5924
0.12574 0.21607 0.31467 -0.24935 -0.74133 0.6231
0.13787 0.21365 0.31711 -0.28412 -0.74369 0.60514
0.15781 0.19923 0.3108 -0.3904 -0.66349 0.63826
0.13754 0.1807 0.28567 -0.28347 -0.55163 0.78444
0.13679 0.13498 0.26333 -0.26941 -0.24273 0.93193
0.16816 0.12536 0.27375 -0.46331 -0.17663 0.86841
0.13509 0.085271 0.25973 -0.25287 0.11829 0.96024
0.15598 0.071851 0.27183 -0.42292 0.095887 0.90108
0.11154 0.093433 0.25697 -0.20794 -0.018162 0.97797
0.085947 0.14379 0.26546 -0.1452 -0.48501 0.86237
0.2224 -0.14243 0.082693 -0.8316 0.5096 -0.22078
0.22562 -0.1475 0.050805 -0.82951 0.54416 -0.12571
0.19846 -0.18168 0.038325 -0.67464 0.73599 -0.056384
-0.036753 0.17838 0.53928 0.24323 -0.79828 0.55099
-0.066558 0.17481 0.55312 0.41319 -0.79242 0.44871
-0.067167 0.12139 0.2542 -0.078581 -0.13222 0.9881
-0.023854 0.13601 0.267 -0.3133 -0.28812 0.90489
-0.0097675 0.16086 0.28293 -0.4308 -0.44008 0.78787
0.014566 0.16366 0.30356 -0.51223 -0.54954 0.66002
0.039219 0.17685 0.34652 -0.64642 -0.65457 0.39202
0.015996 0.18378 0.32974 -0.4016 -0.82135 0.4051
0.015295 0.18689 0.33717 -0.29416 -0.93091 0.21653
-0.019956 0.19232 0.3239 -0.1196 -0.96057 0.25101
-0.051416 0.18869 0.29714 0.048958 -0.96564 0.25523
-0.042033 0.1818 0.27635 0.01345 -0.95263 0.30382
-0.090694 0.17185 0.2699 0.28899 -0.88677 0.36073
0.00049085 0.19646 0.55966 -0.014238 -0.91286 0.40804
-0.032219 -0.16631 0.20982 -0.037236 0.99835 -0.043709
-0.010478 -0.16396 0.20233 -0.081223 0.99651 -0.019359
-0.030032 -0.16644 -0.43836 -0.55738 0.73746 -0.3814
-0.066966 -0.18342 -0.43183 -0.30513 0.84003 -0.44861
-0.040101 -0.18609 -0.46516 -0.50346 0.80074 -0.32458
-0.086607 -0.17253 -0.40461 -0.15186 0.81473 -0.55961
-0.11402 -0.18915 -0.42869 0.031347 0.87239 -0.48781
-0.1524 -0.18333 -0.43207 0.2889 0.83615 -0.46626
-0.13791 -0.20126 -0.45899 0.19189 0.89196 -0.40937
-0.15822 -0.2086 -0.48991 0.29847 0.88726 -0.35168
-0.11249 -0.21676 -0.4909 -0.0038903 0.94489 -0.32737
-0.082989 -0.22428 -0.52946 -0.23867 0.94694 -0.21527
-0.058457 -0.20653 -0.49518 -0.39557 0.87806 -0.26934
-0.01795 -0.18026 -0.4996 -0.65517 0.72708 -0.20521
-0.0016855 -0.17205 -0.53411 -0.75475 0.64397 -0.12509
-0.025492 -0.14992 -0.41598 -0.57462 0.68916 -0.44144
-0.01678 -0.13989 -0.41509 -0.64761 0.69564 -0.31095
-0.055272 -0.15929 -0.402 -0.36983 0.79411 -0.48229
-0.097177 -0.16604 -0.39604 -0.07127 0.86456 -0.49745
-0.22804 -0.14311 -0.18581 0.72365 0.68491 0.085065
-0.254 -0.11005 -0.1855 0.84836 0.52279 0.083571
-0.24097 -0.12221 -0.22982 0.79331 0.60024 0.1018
-0.24905 -0.10154 -0.2734 0.84799 0.51511 0.12483
0.18457 0.16866 0.30395 -0.57437 -0.47222 0.66866
0.21483 0.065537 0.3118 -0.75111 0.17832 0.63563
0.20375 0.11751 0.29756 -0.6936 -0.14383 0.70585
-0.15482 0.0076107 0.82566 0.85974 0.052383 -0.50803
-0.14539 0.036455 0.83961 0.81711 -0.075947 -0.57145
-0.11689 0.086807 0.85822 0.66008 -0.30212 -0.68776
-0.13489 0.063806 0.84766 0.76034 -0.19506 -0.61954
-0.14864 0.072238 0.8233 0.84569 -0.24206 -0.47563
-0.14402 0.10462 0.80858 0.83253 -0.39277 -0.39068
-0.15774 0.08118 0.79884 0.8867 -0.29987 -0.3519
-0.1634 0.087908 0.77328 0.91432 -0.3427 -0.21582
-0.17048 0.052336 0.78412 0.94393 -0.1717 -0.28197
-0.17962 0.023851 0.75488 0.99165 -0.030117 -0.12539
-0.17042 0.014499 0.79402 0.94169 0.014948 -0.33614
-0.16422 -0.019658 0.80023 0.9111 0.16924 -0.37584
-0.16979 -0.041581 0.76642 0.94549 0.25124 -0.20721
-0.15379 -0.05155 0.80466 0.86289 0.30375 -0.40393
-0.13942 -0.082177 0.80599 0.79446 0.44133 -0.4172
-0.05621 0.19658 0.65094 0.46604 -0.84006 0.27769
-0.054387 0.20338 0.65939 0.3879 -0.84472 0.36876
-0.028057 0.20831 0.64997 0.22107 -0.90665 0.35931
0.1529 -0.06116 0.093533 0.73238 0.51595 0.44431
0.18176 -0.072597 0.066106 0.58547 0.63105 0.50892
0.19343 -0.10062 0.097996 0.44967 0.79314 0.41077
0.17323 -0.038375 0.044473 0.72566 0.42949 0.53754
0.21033 -0.079931 0.04898 0.45025 0.74131 0.49773
0.26252 -0.1026 0.061509 0.061944 0.91233 0.40475
0.31255 -0.10193 0.077444 -0.30909 0.90522 0.29163
0.28023 -0.11478 0.090292 -0.11601 0.93484 0.33559
0.29702 -0.12155 0.12814 -0.2759 0.9395 0.20303
0.24389 -0.12158 0.11 0.094722 0.94029 0.32692
0.20746 -0.12195 0.13222 0.3007 0.90167 0.31077
0.22553 -0.13456 0.1647 0.12412 0.9619 0.24359
0.17482 -0.11381 0.15363 0.48149 0.8167 0.31807
