0.15118 0.12614 0.74473 -0.70164 -0.51113 -0.49643
-0.13674 0.12833 0.76419 0.67985 -0.54521 -0.49047
-0.15112 0.12793 0.74424 0.69562 -0.52775 -0.48744
-0.17141 0.099653 0.74148 0.76671 -0.42891 -0.47769
0.18348 0.068903 0.74274 -0.81912 -0.31776 -0.47756
0.17088 0.071846 0.76298 -0.80024 -0.34719 -0.48896
-0.20175 0.036152 0.73041 0.87745 -0.18266 -0.44353
0.18891 0.010639 0.76001 -0.88055 -0.11721 -0.45922
-0.19675 0.0056247 0.75119 0.89298 -0.11237 -0.43584
-0.20507 0.0076883 0.73222 0.9098 -0.091193 -0.4049
0.19184 -0.016566 0.75876 -0.89393 -0.036199 -0.44674
-0.19678 -0.018387 0.75465 0.90302 -0.028611 -0.42865
-0.20726 -0.020953 0.73016 0.93003 0.00068693 -0.36748
0.19317 -0.043517 0.75604 -0.90466 0.039234 -0.42432
-0.19667 -0.044959 0.75418 0.91157 0.053498 -0.40764
-0.20624 -0.046874 0.72997 0.93243 0.073705 -0.35374
0.19303 -0.07378 0.75023 -0.90944 0.14092 -0.39124
-0.1942 -0.073198 0.75249 0.91226 0.14651 -0.38252
0.19008 -0.10704 0.73947 -0.89236 0.28402 -0.35075
-0.18871 -0.10329 0.74982 0.90269 0.26008 -0.34281
0.17595 -0.14167 0.73955 -0.84706 0.44377 -0.29249
-0.17904 -0.13027 0.75016 0.87458 0.37625 -0.30586
0.15575 -0.1746 0.73449 -0.76982 0.60132 -0.21398
-0.15835 -0.17088 0.742 0.77889 0.5741 -0.25246
0.13487 -0.19754 0.7363 -0.67292 0.71547 -0.18785
0.10446 -0.22251 0.72781 -0.50616 0.84965 -0.14799
-0.12329 -0.20975 0.73425 0.60781 0.77135 -0.18864
0.062308 -0.24185 0.71973 -0.29575 0.94962 -0.10366
0.027205 -0.25013 0.71831 -0.14686 0.98773 -0.053039
-0.008577 -0.25225 0.71819 0.0178 0.99896 -0.04186
-0.048368 -0.24762 0.72188 0.2239 0.97149 -0.07792
-0.086771 -0.23325 0.72713 0.42113 0.89799 -0.12754
0.098106 0.19671 0.71686 -0.44931 -0.7685 -0.45554
0.056612 0.20031 0.7449 -0.29214 -0.8261 -0.48188
0.063813 0.21002 0.72178 -0.30552 -0.83975 -0.44887
-0.051458 0.20356 0.74091 0.26295 -0.83828 -0.47764
-0.042727 0.21551 0.72272 0.20759 -0.86743 -0.45218
-0.078318 0.20452 0.71968 0.36166 -0.80606 -0.46847
0.1234 0.17472 0.72333 -0.56678 -0.67091 -0.47816
-0.11418 0.18009 0.72576 0.51466 -0.69923 -0.49619
0.14768 0.14907 0.72486 -0.66701 -0.56788 -0.4823
-0.12227 0.15749 0.74686 0.59213 -0.64667 -0.48084
-0.145 0.15172 0.72572 0.64753 -0.58264 -0.49116
-0.16832 0.12404 0.72285 0.73627 -0.48676 -0.47008
0.18325 0.095281 0.72382 -0.78591 -0.3905 -0.47942
0.17003 0.098009 0.74327 -0.7696 -0.41778 -0.48289
-0.18824 0.06861 0.73794 0.82968 -0.31498 -0.46089
-0.20382 0.061956 0.71148 0.87075 -0.27857 -0.40522
0.20594 0.033906 0.71978 -0.88331 -0.16035 -0.44052
0.19398 0.038225 0.74175 -0.86049 -0.20203 -0.4677
0.20025 0.0082379 0.73938 -0.89071 -0.093959 -0.44476
0.2027 -0.019785 0.73718 -0.906 -0.0073525 -0.42322
0.2035 -0.047998 0.73334 -0.91548 0.076724 -0.39499
0.20274 -0.080349 0.72378 -0.92073 0.18403 -0.34409
-0.20299 -0.075059 0.7294 0.92462 0.16694 -0.34235
0.1958 -0.10957 0.72312 -0.89549 0.3104 -0.31899
-0.19546 -0.10633 0.72898 0.89968 0.28811 -0.32799
0.18409 -0.13834 0.71925 -0.84792 0.44103 -0.29415
-0.1809 -0.14105 0.72898 0.85301 0.43134 -0.29382
0.16063 -0.17468 0.72006 -0.7487 0.60853 -0.26295
-0.16356 -0.17576 0.71777 0.76526 0.60028 -0.23245
0.12495 -0.21115 0.71314 -0.58493 0.78944 -0.18614
-0.11732 -0.21927 0.71234 0.54544 0.82281 -0.15964
-0.14207 -0.19682 0.72188 0.66777 0.71137 -0.2192
0.08103 -0.23688 0.70531 -0.37716 0.9184 -0.11957
0.047205 -0.24819 0.70026 -0.20618 0.97298 -0.10394
0.022151 -0.25161 0.70158 -0.10178 0.99143 -0.081911
-0.0085812 -0.25299 0.7002 0.018292 0.99829 -0.055554
-0.043551 -0.24985 0.7014 0.17573 0.98234 -0.064205
-0.081719 -0.23829 0.70641 0.36849 0.9229 -0.11168
0.01914 0.2242 0.71449 -0.085718 -0.89552 -0.43668
0.028306 0.23367 0.69121 -0.11864 -0.9113 -0.39429
-0.018326 0.22447 0.7131 0.088715 -0.89856 -0.4298
-0.0071317 0.23474 0.69139 0.039717 -0.91591 -0.39941
-0.10901 0.19912 0.70269 0.46495 -0.75422 -0.46365
0.14364 0.16821 0.70574 -0.63611 -0.63217 -0.44242
-0.13967 0.17494 0.70395 0.60599 -0.64589 -0.46433
-0.16435 0.1483 0.70225 0.70657 -0.54457 -0.45189
0.18171 0.12073 0.70387 -0.75562 -0.45998 -0.46632
0.16755 0.12266 0.7241 -0.73576 -0.47836 -0.47941
0.19705 0.092238 0.70321 -0.80928 -0.36113 -0.46331
-0.18758 0.094321 0.71874 0.81033 -0.38484 -0.44188
-0.20173 0.089773 0.69462 0.8498 -0.343 -0.40024
0.19703 0.065309 0.72247 -0.83876 -0.28182 -0.46589
-0.21048 0.034454 0.71347 0.90019 -0.16545 -0.40285
0.21098 0.0038235 0.71698 -0.90797 -0.057095 -0.41513
-0.21521 0.006034 0.70884 0.92463 -0.04439 -0.37827
0.21244 -0.024246 0.71478 -0.9213 0.024524 -0.38807
-0.21503 -0.0232 0.70905 0.93798 0.03408 -0.34501
0.21265 -0.052573 0.70937 -0.93016 0.11731 -0.34792
-0.2146 -0.048896 0.70589 0.94849 0.095747 -0.30198
0.21199 -0.080797 0.69656 -0.93008 0.2216 -0.29301
-0.21143 -0.075471 0.70461 0.94329 0.17288 -0.2834
0.2011 -0.11302 0.70216 -0.90581 0.32966 -0.26616
-0.20367 -0.10542 0.70573 0.9149 0.28891 -0.28193
0.18832 -0.14556 0.69537 -0.85111 0.4674 -0.23908
-0.19089 -0.138 0.70527 0.86202 0.43415 -0.26159
0.17082 -0.17166 0.69905 -0.7718 0.58815 -0.24168
-0.17432 -0.16567 0.70395 0.79887 0.56091 -0.21722
0.14269 -0.20105 0.69825 -0.63912 0.73486 -0.22694
0.11283 -0.22481 0.68968 -0.48379 0.8554 -0.18503
-0.11503 -0.22435 0.69035 0.51233 0.84794 -0.13605
-0.14971 -0.19618 0.69704 0.68139 0.71318 -0.16457
0.085394 -0.23735 0.69022 -0.36447 0.91807 -0.15593
0.053287 -0.24812 0.68637 -0.22573 0.96817 -0.10815
0.022012 -0.25298 0.68475 -0.092408 0.99101 -0.096736
-0.0088153 -0.25404 0.68451 0.026743 0.9952 -0.094186
-0.040896 -0.25123 0.68423 0.1507 0.98491 -0.085051
-0.077879 -0.24202 0.68702 0.32797 0.93818 -0.11073
0.088523 0.21377 0.69485 -0.39786 -0.81972 -0.41203
0.095673 0.22142 0.67151 -0.40903 -0.82843 -0.38262
0.05271 0.22424 0.70121 -0.24256 -0.87408 -0.42089
0.061035 0.23298 0.67619 -0.26617 -0.88788 -0.37526
-0.048114 0.22618 0.69879 0.20986 -0.88449 -0.41669
-0.035105 0.23954 0.67367 0.14965 -0.91267 -0.38031
-0.081807 0.21727 0.69502 0.34067 -0.83562 -0.43092
-0.070448 0.23146 0.67246 0.28349 -0.87922 -0.38289
0.12246 0.19136 0.69858 -0.54232 -0.72848 -0.41858
0.12273 0.20278 0.67635 -0.52894 -0.75259 -0.39222
-0.13262 0.19521 0.68159 0.56384 -0.72292 -0.39933
-0.15689 0.17466 0.67827 0.66487 -0.63286 -0.39677
0.17748 0.14629 0.68232 -0.71841 -0.54681 -0.42998
0.16327 0.14774 0.70334 -0.70071 -0.55355 -0.45009
0.19568 0.11826 0.68294 -0.77989 -0.44272 -0.44246
-0.185 0.11964 0.69945 0.78571 -0.44461 -0.4301
-0.19922 0.11617 0.67466 0.82927 -0.41134 -0.3783
0.20916 0.061179 0.70141 -0.86132 -0.24128 -0.44711
-0.21706 0.0585 0.68307 0.90994 -0.22859 -0.34605
-0.22732 0.052433 0.65643 0.94186 -0.17691 -0.28567
0.22938 0.024134 0.67006 -0.93778 -0.065212 -0.34104
0.21802 0.028956 0.6974 -0.90319 -0.11631 -0.41317
-0.21874 0.03168 0.69397 0.92829 -0.14461 -0.3426
-0.22908 0.024563 0.6646 0.95566 -0.10712 -0.27432
0.22297 -0.0050654 0.69013 -0.93364 0.002144 -0.3582
-0.22549 0.00018189 0.68141 0.94643 -0.021889 -0.32217
0.22008 -0.032932 0.6947 -0.93859 0.075236 -0.33674
-0.223 -0.027271 0.68726 0.94298 0.074035 -0.3245
-0.23034 -0.030158 0.66328 0.95648 0.091074 -0.27723
0.22067 -0.054943 0.68487 -0.94579 0.1471 -0.28956
-0.21999 -0.053374 0.68578 0.94533 0.14235 -0.29339
0.21872 -0.078468 0.67626 -0.93875 0.23259 -0.25426
-0.21655 -0.07827 0.68184 0.94878 0.19905 -0.24536
0.20969 -0.10768 0.67518 -0.9162 0.32885 -0.22898
-0.21013 -0.10633 0.68086 0.93049 0.29623 -0.21548
0.19707 -0.13628 0.68008 -0.87667 0.43293 -0.2098
-0.19838 -0.13319 0.68545 0.88184 0.4196 -0.21518
0.17798 -0.17026 0.67189 -0.79231 0.58392 -0.17688
-0.17807 -0.16837 0.68185 0.78999 0.58275 -0.19057
0.15551 -0.19535 0.67799 -0.69178 0.70038 -0.17583
0.12653 -0.22 0.67279 -0.53969 0.82587 -0.16332
-0.14716 -0.20331 0.67569 0.64909 0.7401 -0.17589
0.088641 -0.23942 0.66961 -0.35898 0.91957 -0.15975
0.057112 -0.24889 0.67178 -0.23494 0.96176 -0.14078
0.029908 -0.25325 0.67412 -0.11965 0.98373 -0.134
-0.0031689 -0.25592 0.67012 0.005619 0.98602 -0.16654
-0.040195 -0.25263 0.67062 0.1498 0.97784 -0.14626
-0.074908 -0.24529 0.67012 0.29902 0.94475 -0.13427
-0.11174 -0.22897 0.67221 0.47769 0.86519 -0.15252
0.022639 0.24232 0.6723 -0.094616 -0.92373 -0.37118
-0.0068757 0.2445 0.66892 0.036247 -0.92852 -0.3695
-0.1056 0.21621 0.67473 0.43445 -0.81832 -0.37631
-0.099712 0.22842 0.65193 0.41372 -0.84673 -0.33449
0.1518 0.17581 0.68175 -0.64006 -0.65425 -0.40284
0.1493 0.19217 0.6564 -0.60967 -0.69985 -0.37217
0.17541 0.16589 0.65762 -0.69686 -0.61259 -0.37298
0.193 0.1409 0.66191 -0.7584 -0.52632 -0.38446
-0.18062 0.14586 0.67782 0.75608 -0.51848 -0.39941
-0.1942 0.14287 0.65287 0.80035 -0.49161 -0.34317
0.22462 0.083566 0.65363 -0.89761 -0.28123 -0.33942
0.21134 0.088202 0.68057 -0.84534 -0.32395 -0.42481
-0.21549 0.084545 0.66762 0.8939 -0.29653 -0.33618
-0.22761 0.074538 0.63854 0.93501 -0.23417 -0.26631
0.22313 0.056175 0.67593 -0.90257 -0.19306 -0.38483
0.23352 -0.0047582 0.65935 -0.95718 0.041872 -0.28644
-0.2335 -0.0054849 0.65693 0.96899 -0.0067314 -0.24702
0.22773 -0.031633 0.67116 -0.95478 0.10294 -0.27892
0.22707 -0.060332 0.6572 -0.95782 0.18308 -0.22152
-0.22571 -0.056376 0.66528 0.94442 0.17161 -0.28039
0.21969 -0.08911 0.66032 -0.93805 0.27445 -0.21152
-0.22083 -0.081993 0.66404 0.93624 0.23734 -0.25909
0.21399 -0.11204 0.65085 -0.91509 0.3493 -0.2015
-0.21273 -0.11055 0.66117 0.92001 0.32838 -0.21391
0.19762 -0.14518 0.65786 -0.86022 0.46992 -0.19799
-0.19868 -0.14147 0.66522 0.87003 0.4565 -0.18615
0.17386 -0.1814 0.65328 -0.75142 0.62889 -0.19967
-0.1755 -0.17883 0.65834 0.75859 0.61688 -0.20975
0.1472 -0.20742 0.6565 -0.63455 0.75475 -0.16644
-0.14254 -0.21201 0.65775 0.60759 0.76997 -0.19491
0.1091 -0.23295 0.65391 -0.45569 0.8757 -0.15969
0.080349 -0.24575 0.65257 -0.32186 0.93108 -0.17174
0.060948 -0.24988 0.65935 -0.23916 0.95497 -0.17561
0.030318 -0.25597 0.65896 -0.13198 0.97301 -0.18929
-0.042678 -0.25508 0.65811 0.1725 0.95897 -0.22498
-0.075307 -0.24729 0.65574 0.30376 0.93482 -0.18397
-0.10806 -0.23402 0.65484 0.44296 0.88035 -0.16963
-0.0094631 -0.2595 0.65381 0.025721 0.96857 -0.24739
0.088024 0.23313 0.65203 -0.36694 -0.86337 -0.34634
0.051363 0.24586 0.64994 -0.21334 -0.91085 -0.35333
0.062486 0.25211 0.62629 -0.25966 -0.9111 -0.32013
0.012084 0.25103 0.65082 -0.047205 -0.93855 -0.34189
0.03128 0.25663 0.63099 -0.11807 -0.93567 -0.33254
-0.021496 0.25028 0.65062 0.091743 -0.9365 -0.33845
-0.002417 0.25828 0.63104 0.0177 -0.94407 -0.32928
-0.052101 0.24504 0.65147 0.20133 -0.9187 -0.33978
-0.039975 0.25525 0.62885 0.16223 -0.9283 -0.33457
-0.075594 0.23856 0.65254 0.30321 -0.88896 -0.34324
0.12043 0.21627 0.65291 -0.5011 -0.7909 -0.35124
0.1176 0.22634 0.63074 -0.47808 -0.81922 -0.31673
-0.13695 0.20495 0.65421 0.56024 -0.75178 -0.34779
-0.16148 0.19316 0.63547 0.6565 -0.68568 -0.3144
-0.1708 0.17375 0.65511 0.69986 -0.61938 -0.35576
-0.18401 0.17162 0.62928 0.74896 -0.59713 -0.28723
0.22237 0.1098 0.63316 -0.8787 -0.38393 -0.28369
0.21072 0.11551 0.65699 -0.83087 -0.41887 -0.36633
-0.21314 0.11034 0.64758 0.87624 -0.36703 -0.31224
-0.225 0.10134 0.61987 0.91355 -0.31243 -0.2604
0.23441 0.051815 0.64709 -0.9462 -0.14794 -0.28777
-0.23478 0.045535 0.63386 0.96451 -0.13763 -0.22535
0.23918 0.022897 0.64045 -0.96996 -0.040107 -0.23993
-0.23595 0.023702 0.63841 0.97203 -0.074226 -0.2228
0.24048 -0.0016453 0.63271 -0.97925 0.055613 -0.19488
-0.23729 -0.00044773 0.63697 0.98072 -0.021963 -0.19416
0.23583 -0.029679 0.64085 -0.96825 0.12602 -0.21589
-0.23668 -0.028036 0.63717 0.97807 0.068338 -0.19674
0.23256 -0.05898 0.63216 -0.95908 0.19356 -0.20664
-0.23266 -0.055457 0.64176 0.95908 0.1609 -0.23296
0.22441 -0.085071 0.64258 -0.94574 0.25831 -0.19711
-0.22591 -0.08264 0.64421 0.93609 0.25018 -0.24726
0.21893 -0.10787 0.63483 -0.92062 0.333 -0.2039
-0.21691 -0.1114 0.64328 0.90904 0.3453 -0.23326
0.20656 -0.13663 0.63497 -0.87847 0.42894 -0.21048
-0.20124 -0.14493 0.64456 0.86069 0.46071 -0.21671
0.18472 -0.17258 0.6384 -0.7869 0.57961 -0.21176
-0.18335 -0.17711 0.63752 0.77682 0.59715 -0.19991
0.15421 -0.20646 0.63683 -0.64209 0.73654 -0.21268
-0.13913 -0.21954 0.63683 0.57404 0.80108 -0.16954
-0.16246 -0.19802 0.64285 0.68251 0.70316 -0.19935
0.11875 -0.23093 0.63753 -0.48749 0.85439 -0.1799
0.090909 -0.24395 0.64018 -0.36858 0.91442 -0.16727
0.058714 -0.25411 0.6401 -0.24092 0.95312 -0.18309
-0.077727 -0.25026 0.63928 0.32614 0.92112 -0.21253
-0.10827 -0.2375 0.63733 0.44291 0.87725 -0.18507
0.019328 -0.2629 0.63474 -0.10975 0.97068 -0.21387
-0.017433 -0.2649 0.63395 0.054161 0.97314 -0.22376
-0.047406 -0.25877 0.64025 0.2064 0.948 -0.24228
0.087511 0.24214 0.63021 -0.364 -0.87405 -0.32177
0.087475 0.24915 0.60772 -0.36115 -0.88779 -0.28531
-0.079926 0.24374 0.63235 0.31911 -0.89589 -0.30911
-0.071493 0.25404 0.61135 0.289 -0.89168 -0.3484
0.14693 0.20621 0.63204 -0.586 -0.74273 -0.32397
0.14458 0.21743 0.60894 -0.56359 -0.77581 -0.28371
-0.11546 0.22772 0.63204 0.45443 -0.83262 -0.31661
-0.14224 0.21326 0.62734 0.56512 -0.77075 -0.29425
-0.13338 0.22433 0.61135 0.53135 -0.80542 -0.26263
0.17424 0.18061 0.63425 -0.68228 -0.6488 -0.33698
0.1728 0.19285 0.61006 -0.66766 -0.68628 -0.28853
0.20263 0.14497 0.63335 -0.79152 -0.52116 -0.31921
0.19242 0.16982 0.61436 -0.73698 -0.60641 -0.29853
-0.20698 0.13913 0.62586 0.84099 -0.46412 -0.27808
-0.21686 0.1348 0.59986 0.86442 -0.43826 -0.24641
0.23542 0.079716 0.6234 -0.94514 -0.23697 -0.22485
-0.23449 0.07057 0.61693 0.95381 -0.19456 -0.22888
0.24172 0.048202 0.6168 -0.97866 -0.10818 -0.17471
-0.23733 0.049442 0.61859 0.96741 -0.1332 -0.21537
0.24397 0.020851 0.61359 -0.98821 -0.018132 -0.15205
-0.23981 0.024118 0.61828 0.97626 -0.064896 -0.20665
0.24315 -0.0051913 0.61497 -0.98474 0.054993 -0.16511
-0.24052 -0.00029637 0.61943 0.97877 -0.011036 -0.20467
0.24067 -0.030903 0.6168 -0.97334 0.11516 -0.19838
-0.24016 -0.026048 0.61916 0.97854 0.055727 -0.19839
0.23751 -0.056295 0.61287 -0.95755 0.17708 -0.22749
-0.23757 -0.05327 0.61898 0.97126 0.13828 -0.19372
0.22809 -0.087842 0.62164 -0.94086 0.26424 -0.21206
-0.23174 -0.082065 0.62125 0.9488 0.24038 -0.20493
0.21832 -0.11687 0.62299 -0.91009 0.35393 -0.21555
-0.22321 -0.1059 0.62634 0.91896 0.32654 -0.2211
0.21022 -0.14021 0.61419 -0.87393 0.43404 -0.21878
-0.21138 -0.13724 0.62066 0.87425 0.43712 -0.21124
0.19315 -0.1686 0.61852 -0.80932 0.55068 -0.20435
-0.19465 -0.16506 0.62349 0.81955 0.54406 -0.17982
0.17286 -0.19201 0.62361 -0.72591 0.65426 -0.21212
0.15234 -0.21463 0.61566 -0.61717 0.7624 -0.19453
-0.17047 -0.1959 0.6207 0.70614 0.6891 -0.1628
0.12374 -0.23211 0.61998 -0.48422 0.85008 -0.2071
0.087366 -0.24901 0.62155 -0.34822 0.91821 -0.1888
-0.10959 -0.24113 0.61831 0.45408 0.87095 -0.18779
-0.13984 -0.22253 0.61748 0.57274 0.80215 -0.1689
0.046569 -0.26262 0.61287 -0.20489 0.96291 -0.17558
0.014804 -0.26894 0.60736 -0.08767 0.98613 -0.14096
-0.011865 -0.26894 0.61138 0.026614 0.9889 -0.14617
-0.047146 -0.26473 0.61458 0.20046 0.96548 -0.16634
-0.078741 -0.25458 0.61786 0.33446 0.92348 -0.18795
0.056229 0.25974 0.60877 -0.23276 -0.92467 -0.30134
0.021366 0.26415 0.61129 -0.081951 -0.94324 -0.32183
-0.010876 0.26415 0.6135 0.039369 -0.93652 -0.34841
-0.038494 0.26251 0.61066 0.15173 -0.92003 -0.36127
0.11656 0.23542 0.60835 -0.46883 -0.83677 -0.28287
-0.10705 0.23989 0.61133 0.42893 -0.85247 -0.29885
-0.10274 0.24717 0.59611 0.42388 -0.84733 -0.31994
-0.16326 0.2018 0.60936 0.65822 -0.7101 -0.25
-0.19279 0.17052 0.60521 0.77278 -0.58327 -0.25023
0.22726 0.11409 0.60782 -0.90227 -0.36376 -0.23147
0.2232 0.13517 0.58721 -0.87749 -0.43259 -0.20705
0.21236 0.14691 0.60551 -0.82738 -0.49542 -0.26458
-0.23151 0.10018 0.59844 0.92654 -0.29073 -0.23875
0.2405 0.076391 0.59801 -0.96596 -0.19781 -0.16668
-0.23673 0.075424 0.60187 0.95349 -0.20014 -0.22537
0.24518 0.047015 0.59586 -0.98308 -0.097062 -0.15536
-0.23941 0.054446 0.60509 0.96696 -0.1371 -0.21494
0.2462 0.020946 0.5976 -0.98442 -0.026363 -0.17384
-0.24354 0.029948 0.60049 0.96927 -0.086043 -0.23046
-0.24917 0.0256 0.57866 0.96647 -0.080894 -0.24369
0.24556 -0.0034239 0.60055 -0.97778 0.027059 -0.20788
-0.2443 0.00082977 0.60349 0.97084 -0.013208 -0.23938
-0.2492 0.0015686 0.58442 0.96827 -0.022416 -0.24888
0.24402 -0.027964 0.6014 -0.96724 0.086267 -0.23877
-0.24353 -0.026108 0.6041 0.96937 0.059972 -0.23819
-0.24812 -0.025384 0.58688 0.96424 0.053494 -0.25959
0.24219 -0.050009 0.59865 -0.95415 0.14892 -0.25967
-0.24075 -0.053617 0.6036 0.9623 0.1425 -0.23167
0.23519 -0.079899 0.60121 -0.93481 0.24034 -0.26146
-0.23521 -0.082187 0.60332 0.94672 0.23478 -0.22045
0.22312 -0.1149 0.60533 -0.91093 0.3398 -0.23398
-0.22472 -0.11444 0.60566 0.91262 0.34878 -0.21325
0.21269 -0.14157 0.60238 -0.86714 0.43923 -0.23484
-0.21126 -0.14692 0.60009 0.85754 0.47072 -0.20748
0.19752 -0.16869 0.5979 -0.80403 0.55494 -0.21348
-0.19406 -0.17112 0.60753 0.79644 0.5733 -0.19239
0.17071 -0.20085 0.6011 -0.70145 0.68976 -0.17942
-0.16936 -0.20171 0.60129 0.68665 0.70226 -0.18802
0.13676 -0.22908 0.59884 -0.53998 0.82249 -0.17868
0.10274 -0.24782 0.59801 -0.39523 0.90109 -0.1784
-0.10807 -0.24623 0.59686 0.43879 0.8833 -0.16507
-0.13905 -0.22712 0.59915 0.56145 0.80688 -0.1836
0.068457 -0.2606 0.59388 -0.26711 0.9519 -0.1501
0.039717 -0.26832 0.5857 -0.15314 0.98233 -0.10761
0.018118 -0.27062 0.58631 -0.085813 0.99286 -0.082902
-0.010544 -0.27172 0.58607 0.022764 0.99721 -0.071151
-0.042309 -0.26877 0.58928 0.15831 0.98288 -0.094285
-0.076403 -0.25951 0.59395 0.31215 0.9401 -0.13704
0.08665 0.2556 0.58944 -0.3623 -0.88513 -0.29202
0.051282 0.26649 0.59065 -0.21753 -0.91685 -0.33477
0.064353 0.27066 0.57105 -0.28002 -0.89681 -0.34253
0.012771 0.27061 0.59545 -0.062964 -0.93297 -0.3544
0.033983 0.27585 0.57591 -0.14995 -0.92113 -0.35922
-0.019744 0.27044 0.59563 0.066485 -0.93126 -0.35823
-0.0001718 0.27795 0.57776 -0.012932 -0.92992 -0.36753
-0.052059 0.26633 0.59464 0.20437 -0.91197 -0.35572
-0.034958 0.2758 0.57791 0.13301 -0.9212 -0.36566
-0.082426 0.25883 0.59029 0.34372 -0.87697 -0.33584
-0.071121 0.26828 0.57525 0.29655 -0.89148 -0.34252
0.14345 0.22483 0.58695 -0.55228 -0.79399 -0.25409
0.11604 0.24271 0.58735 -0.46467 -0.8456 -0.26277
0.11746 0.24669 0.56933 -0.47963 -0.83346 -0.27441
0.17091 0.20347 0.58864 -0.64876 -0.71388 -0.26362
-0.13717 0.22844 0.59115 0.54957 -0.78622 -0.28255
-0.1611 0.21616 0.57392 0.63896 -0.72078 -0.26871
0.20116 0.17063 0.58792 -0.77136 -0.58473 -0.25119
0.18954 0.19121 0.57061 -0.70861 -0.66517 -0.23543
-0.17422 0.19902 0.5878 0.68713 -0.68121 -0.25257
-0.18397 0.1963 0.56585 0.72286 -0.65187 -0.22919
-0.20084 0.16908 0.58344 0.791 -0.56311 -0.23921
-0.22025 0.14045 0.57535 0.86552 -0.44921 -0.22155
0.23646 0.10532 0.58178 -0.93745 -0.29429 -0.18595
-0.23061 0.11334 0.58359 0.91454 -0.34074 -0.21796
0.24372 0.074647 0.57986 -0.96627 -0.18219 -0.18199
-0.24064 0.080532 0.57977 0.95186 -0.21542 -0.21807
-0.24687 0.077427 0.55709 0.94852 -0.21783 -0.22992
0.25063 0.050629 0.56795 -0.9568 -0.13608 -0.25695
0.24711 0.048642 0.58231 -0.97077 -0.11515 -0.21058
-0.24366 0.051909 0.58977 0.96294 -0.13874 -0.2313
-0.24996 0.047437 0.56617 0.96264 -0.1339 -0.23535
0.24884 0.023994 0.58538 -0.96861 -0.05972 -0.24132
0.24927 -0.0017101 0.58659 -0.9661 0.0076413 -0.25806
0.24851 -0.027692 0.58538 -0.96137 0.078094 -0.26396
0.24545 -0.057725 0.58284 -0.94832 0.16204 -0.27283
-0.24495 -0.05335 0.588 0.95326 0.14059 -0.26746
0.23881 -0.082833 0.58721 -0.92729 0.24418 -0.28374
-0.2394 -0.08188 0.58807 0.93595 0.23288 -0.26412
0.2313 -0.10707 0.58686 -0.90306 0.31829 -0.28839
-0.23019 -0.11173 0.58805 0.90783 0.3365 -0.25021
0.21515 -0.14455 0.58786 -0.85529 0.45059 -0.25585
-0.21823 -0.13845 0.58945 0.86851 0.43866 -0.23078
0.19547 -0.17858 0.58082 -0.76912 0.59178 -0.24135
-0.19759 -0.17339 0.58696 0.7836 0.57385 -0.23806
0.17446 -0.20273 0.58057 -0.69137 0.6959 -0.19423
-0.166 -0.20992 0.58444 0.65264 0.72514 -0.21962
0.15014 -0.22348 0.58262 -0.59409 0.78658 -0.1684
0.1186 -0.24457 0.57633 -0.44821 0.88124 -0.15008
-0.10422 -0.25174 0.57466 0.40029 0.90653 -0.13405
-0.13563 -0.23354 0.57997 0.5276 0.82926 -0.18432
0.077407 -0.26137 0.56981 -0.27132 0.95432 -0.12513
0.044437 -0.26911 0.56623 -0.15386 0.98581 -0.067201
0.016981 -0.27189 0.5637 -0.061852 0.99742 -0.036437
-0.008582 -0.27273 0.56383 0.01208 0.99945 -0.030859
-0.038182 -0.27068 0.56573 0.12098 0.9916 -0.045864
-0.071905 -0.26381 0.57022 0.26823 0.95917 -0.08969
0.089449 0.26053 0.57319 -0.38584 -0.86341 -0.32504
0.091085 0.26691 0.55331 -0.39649 -0.86253 -0.31438
0.14406 0.23132 0.56585 -0.55623 -0.79727 -0.23446
-0.1104 0.25156 0.57395 0.45451 -0.83111 -0.32043
-0.14148 0.23428 0.56833 0.56434 -0.77764 -0.27713
-0.13607 0.24153 0.55717 0.55584 -0.77609 -0.29789
0.16948 0.21279 0.56487 -0.63289 -0.74453 -0.21243
0.17204 0.21546 0.54216 -0.65187 -0.73712 -0.17812
0.22637 0.13811 0.5676 -0.88448 -0.41722 -0.20885
0.22041 0.15904 0.5455 -0.84911 -0.50518 -0.15431
0.20926 0.17101 0.56302 -0.79713 -0.56524 -0.21234
-0.20774 0.16855 0.56076 0.80882 -0.54945 -0.20953
-0.21591 0.16329 0.53845 0.83399 -0.51716 -0.19238
-0.22355 0.1432 0.55681 0.87047 -0.44967 -0.20018
0.23996 0.10413 0.56337 -0.93668 -0.28669 -0.2011
-0.236 0.1117 0.56286 0.92069 -0.33077 -0.20717
-0.24369 0.10318 0.5381 0.93003 -0.30898 -0.19895
0.25136 0.076999 0.54745 -0.94767 -0.21784 -0.2334
0.24673 0.076588 0.56585 -0.95 -0.20569 -0.23492
0.25352 0.024474 0.56789 -0.96413 -0.064523 -0.25746
-0.25461 0.020249 0.55963 0.97079 -0.071343 -0.2291
0.25462 -0.0015496 0.56694 -0.96765 0.0042157 -0.25228
-0.25467 0.00017442 0.56329 0.97237 -0.021204 -0.23249
0.25397 -0.027417 0.56562 -0.96335 0.07033 -0.25885
-0.25389 -0.024237 0.56543 0.97039 0.040195 -0.23816
0.25278 -0.052624 0.55989 -0.95331 0.13844 -0.26838
-0.2511 -0.051608 0.568 0.9581 0.12317 -0.25859
0.2435 -0.084292 0.57034 -0.93136 0.23427 -0.27871
-0.24498 -0.08074 0.5702 0.93386 0.22269 -0.27983
0.23594 -0.109 0.5714 -0.9016 0.31595 -0.29545
-0.23542 -0.11054 0.57213 0.89966 0.3246 -0.29198
0.22605 -0.13415 0.56992 -0.86129 0.40487 -0.30701
-0.21955 -0.14436 0.57484 0.84727 0.44491 -0.29015
0.20496 -0.17169 0.56785 -0.7794 0.56375 -0.27336
-0.20228 -0.17611 0.56935 0.77001 0.56984 -0.28699
0.17763 -0.20476 0.5634 -0.6681 0.70954 -0.22402
-0.18332 -0.19629 0.57362 0.69916 0.66275 -0.26822
0.13955 -0.23523 0.55749 -0.52168 0.8386 -0.15685
-0.13079 -0.24118 0.55852 0.47716 0.86391 -0.16118
-0.16065 -0.22008 0.56493 0.59817 0.7721 -0.21461
0.098084 -0.25697 0.55106 -0.35459 0.92925 -0.10374
0.064554 -0.26764 0.54489 -0.19463 0.97768 -0.0791
0.040995 -0.27064 0.54657 -0.1067 0.99249 -0.059911
0.016511 -0.27241 0.54392 -0.046241 0.99868 -0.022494
-0.0077753 -0.27301 0.54315 0.0079631 0.99991 -0.011138
-0.035301 -0.27159 0.54455 0.09323 0.99535 -0.024066
-0.06739 -0.26668 0.54825 0.22308 0.97289 -0.061024
-0.099393 -0.25612 0.55266 0.35206 0.93006 -0.10511
0.059568 0.27809 0.55519 -0.26383 -0.90279 -0.33966
0.024067 0.28513 0.55566 -0.11905 -0.92168 -0.36923
0.033901 0.29213 0.53491 -0.16624 -0.91638 -0.36415
-0.016626 0.28563 0.55849 0.053037 -0.92746 -0.37014
0.001956 0.29394 0.53829 -0.01977 -0.92979 -0.36755
-0.05524 0.28014 0.55769 0.22585 -0.90607 -0.3578
-0.038584 0.29202 0.53517 0.15426 -0.92053 -0.35893
0.12028 0.25187 0.55112 -0.50602 -0.81401 -0.28518
0.12159 0.25775 0.53245 -0.52147 -0.80204 -0.2912
-0.090771 0.26825 0.55645 0.37589 -0.86139 -0.34165
-0.1193 0.25541 0.55226 0.49593 -0.8082 -0.31761
-0.11188 0.26529 0.53669 0.46327 -0.82619 -0.3206
0.14691 0.23538 0.54665 -0.58258 -0.77774 -0.23606
0.14998 0.23844 0.52668 -0.61334 -0.75429 -0.23423
0.19781 0.1903 0.54393 -0.7414 -0.65338 -0.15304
-0.16313 0.22197 0.55277 0.64988 -0.7162 -0.25437
-0.19179 0.19437 0.54522 0.74946 -0.62352 -0.22256
0.23428 0.13242 0.54326 -0.90339 -0.39202 -0.17381
-0.23197 0.13172 0.54358 0.89512 -0.40492 -0.18654
0.24945 0.1007 0.52734 -0.93547 -0.30436 -0.17963
0.24422 0.10436 0.54516 -0.92924 -0.30432 -0.20953
-0.25235 0.073924 0.53855 0.95386 -0.21292 -0.21171
0.25691 0.050037 0.54571 -0.96599 -0.13123 -0.2228
-0.25497 0.051013 0.54392 0.96381 -0.13878 -0.22762
0.25956 0.023685 0.54412 -0.9759 -0.056626 -0.21075
-0.25748 0.025153 0.54468 0.96995 -0.077592 -0.23061
0.26018 -0.0006675 0.54423 -0.97612 -0.003845 -0.2172
-0.25865 4.7289e-005 0.54472 0.97322 -0.019933 -0.22901
0.25989 -0.023769 0.5439 -0.97126 0.043705 -0.23396
-0.2583 -0.024018 0.54561 0.97261 0.036193 -0.2296
0.25942 -0.044799 0.53972 -0.96558 0.10561 -0.23769
-0.25664 -0.049108 0.54596 0.96841 0.098173 -0.22921
0.25348 -0.07314 0.54434 -0.94568 0.18676 -0.26611
-0.25203 -0.076491 0.5489 0.94888 0.18096 -0.25862
0.24138 -0.1078 0.55519 -0.91047 0.28809 -0.29673
-0.24304 -0.1062 0.55361 0.90883 0.28546 -0.30421
0.23133 -0.13455 0.55597 -0.86146 0.39145 -0.32348
-0.23012 -0.13672 0.55715 0.85486 0.39831 -0.3325
0.21643 -0.16341 0.55286 -0.78649 0.51826 -0.33593
-0.21187 -0.16844 0.55756 0.78145 0.53099 -0.32771
0.18588 -0.20227 0.54777 -0.66108 0.70109 -0.26731
-0.18672 -0.20056 0.55527 0.6775 0.68017 -0.27994
0.15504 -0.22911 0.5395 -0.54928 0.81569 -0.18148
0.12568 -0.24801 0.53073 -0.42877 0.89514 -0.12199
-0.12523 -0.24761 0.53702 0.41939 0.8971 -0.13901
-0.15548 -0.22858 0.54509 0.53841 0.81592 -0.21067
0.10102 -0.25798 0.53156 -0.33626 0.93692 -0.095465
0.068928 -0.26764 0.52602 -0.2055 0.9778 -0.040994
0.038301 -0.27177 0.52435 -0.080367 0.99649 -0.023286
0.014828 -0.27282 0.52427 -0.027331 0.99951 -0.015144
-0.0075659 -0.27302 0.52356 0.0069289 0.99996 -0.005209
-0.033206 -0.27213 0.5248 0.072278 0.99723 -0.017639
-0.06335 -0.26842 0.5272 0.18268 0.98229 -0.041573
-0.094892 -0.26005 0.53126 0.30705 0.94814 -0.082196
0.09024 0.27402 0.5354 -0.39669 -0.86046 -0.31976
0.059521 0.28486 0.53725 -0.2725 -0.89643 -0.34952
0.059505 0.29266 0.51729 -0.2779 -0.89778 -0.34172
-0.078856 0.28093 0.53674 0.32797 -0.88099 -0.34101
-0.070934 0.29198 0.51497 0.293 -0.89226 -0.34354
-0.13241 0.25916 0.52025 0.54288 -0.78278 -0.3042
0.17481 0.21816 0.52187 -0.67768 -0.71453 -0.17379
-0.14331 0.24425 0.53774 0.58299 -0.75723 -0.2945
-0.15913 0.24016 0.51404 0.64356 -0.71416 -0.27533
0.19862 0.19419 0.52041 -0.74835 -0.65061 -0.12915
-0.17498 0.21855 0.53036 0.69272 -0.67574 -0.25201
-0.18524 0.21549 0.50845 0.7296 -0.6418 -0.23616
0.22083 0.16344 0.52576 -0.84055 -0.52818 -0.12041
-0.19977 0.1921 0.52549 0.77359 -0.59161 -0.22705
-0.21717 0.16851 0.51929 0.83498 -0.51207 -0.20147
0.23867 0.13166 0.51866 -0.90039 -0.41169 -0.14077
-0.23352 0.13826 0.52265 0.88725 -0.42211 -0.18604
-0.24133 0.13073 0.49775 0.90285 -0.39442 -0.17113
-0.24748 0.10719 0.51488 0.92839 -0.32163 -0.18615
0.25687 0.076688 0.52232 -0.96335 -0.21321 -0.1628
-0.25398 0.081286 0.52165 0.95185 -0.24153 -0.18881
0.26155 0.049401 0.52015 -0.97994 -0.12305 -0.15674
-0.25751 0.058068 0.52634 0.96664 -0.16138 -0.19888
0.26367 0.025067 0.52171 -0.98155 -0.070445 -0.17776
-0.26204 0.03299 0.52308 0.9677 -0.11031 -0.22668
-0.26837 0.029924 0.49754 0.96974 -0.11919 -0.21306
0.26402 0.0019896 0.52463 -0.97711 -0.028596 -0.21082
-0.26295 0.0024196 0.52792 0.96803 -0.030276 -0.24899
-0.26854 0.0036313 0.50625 0.97117 -0.041633 -0.2347
0.26397 -0.021881 0.52524 -0.97292 0.026652 -0.22962
-0.26262 -0.024036 0.52913 0.96651 0.038187 -0.25377
-0.26781 -0.02271 0.50967 0.96744 0.026753 -0.25167
0.26228 -0.047943 0.52534 -0.96425 0.10128 -0.24487
-0.26063 -0.048444 0.52955 0.96231 0.091533 -0.25609
0.2597 -0.069528 0.52447 -0.95259 0.15623 -0.26109
-0.25711 -0.072959 0.53057 0.95281 0.14564 -0.26636
0.25272 -0.094436 0.5311 -0.93049 0.21311 -0.29794
-0.25143 -0.099919 0.53374 0.92785 0.22419 -0.29805
0.23841 -0.12947 0.54238 -0.87769 0.34548 -0.33211
-0.23977 -0.13079 0.53885 0.87326 0.34324 -0.34585
0.22738 -0.15899 0.53604 -0.7937 0.45578 -0.40286
-0.22234 -0.16388 0.54187 0.79059 0.4934 -0.36266
0.19413 -0.20044 0.5354 -0.6312 0.69136 -0.35158
-0.178 -0.21672 0.5343 0.58366 0.76109 -0.28299
-0.2025 -0.18892 0.54398 0.70942 0.61626 -0.34198
0.15634 -0.23277 0.51949 -0.48136 0.85201 -0.20586
0.12808 -0.24888 0.51083 -0.41357 0.90639 -0.08613
-0.11907 -0.25285 0.51556 0.35779 0.92654 -0.1162
-0.1477 -0.23857 0.52374 0.45518 0.86903 -0.19389
0.098676 -0.26044 0.50751 -0.30471 0.95138 -0.044998
0.068653 -0.26826 0.50603 -0.18885 0.98171 -0.024159
0.038814 -0.272 0.50458 -0.078684 0.99686 -0.0086036
0.014071 -0.273 0.5043 -0.019462 0.9998 -0.0047042
-0.0074339 -0.27302 0.5043 0.0056088 0.99998 -0.0036502
-0.03129 -0.27252 0.50532 0.053119 0.99849 -0.01385
-0.060411 -0.26973 0.50773 0.15329 0.98745 -0.037944
-0.090968 -0.26263 0.51133 0.26781 0.96063 -0.073919
0.024942 0.30022 0.51748 -0.12251 -0.93014 -0.34616
-0.0098948 0.30184 0.51771 0.028788 -0.93629 -0.35004
-0.039398 0.3008 0.51285 0.15996 -0.92688 -0.33957
0.12017 0.26478 0.51567 -0.5186 -0.79808 -0.30681
0.089536 0.28103 0.51721 -0.39536 -0.85872 -0.32603
0.090007 0.28794 0.49827 -0.40083 -0.85391 -0.33193
-0.10602 0.27665 0.51659 0.43854 -0.84118 -0.31638
-0.10037 0.28677 0.49632 0.42314 -0.85249 -0.30694
0.15223 0.24312 0.50845 -0.6376 -0.72256 -0.26716
0.14182 0.25626 0.49671 -0.60099 -0.75009 -0.27601
0.17794 0.21971 0.50308 -0.70719 -0.68116 -0.18947
0.20085 0.19517 0.49959 -0.76467 -0.63185 -0.12664
0.22145 0.16649 0.50425 -0.8339 -0.54136 -0.10742
-0.20851 0.18887 0.50244 0.80584 -0.56091 -0.18973
-0.21655 0.18292 0.47931 0.83014 -0.53146 -0.16859
-0.22569 0.16112 0.50108 0.85798 -0.48252 -0.1762
0.25057 0.10735 0.50468 -0.93662 -0.32757 -0.12425
0.23857 0.13925 0.4936 -0.88768 -0.44466 -0.11961
-0.25177 0.10396 0.49845 0.93403 -0.31093 -0.17584
0.25963 0.078746 0.49899 -0.96693 -0.22272 -0.12425
-0.25544 0.086597 0.50538 0.95062 -0.25548 -0.17623
0.26388 0.052466 0.50149 -0.97433 -0.15445 -0.16377
-0.26143 0.060603 0.50627 0.96222 -0.19051 -0.19454
-0.26859 0.051934 0.47877 0.96587 -0.18534 -0.18097
0.26955 0.03118 0.49105 -0.95941 -0.14007 -0.24477
0.26614 0.028709 0.50621 -0.97099 -0.10975 -0.21245
0.26781 0.0043681 0.50927 -0.96792 -0.055261 -0.24511
0.26821 -0.02304 0.50906 -0.96683 0.026406 -0.25404
0.26667 -0.05169 0.50723 -0.96007 0.1 -0.26127
-0.26559 -0.047184 0.51147 0.96064 0.078931 -0.26634
0.26099 -0.075716 0.51551 -0.94774 0.15237 -0.28031
-0.26303 -0.070825 0.51316 0.95095 0.1243 -0.28329
-0.26957 -0.067293 0.49111 0.96332 0.090045 -0.2528
0.25965 -0.08882 0.51315 -0.93791 0.16458 -0.30535
-0.25796 -0.094395 0.51629 0.93423 0.17002 -0.31353
0.25072 -0.11543 0.52232 -0.90045 0.23526 -0.36585
-0.24903 -0.12321 0.52225 0.88839 0.26897 -0.37204
0.24138 -0.14671 0.52141 -0.81788 0.33798 -0.46566
-0.23279 -0.15798 0.52681 0.80153 0.4325 -0.41291
0.20807 -0.19527 0.52244 -0.63351 0.64328 -0.42994
-0.20403 -0.19726 0.52655 0.6599 0.6496 -0.37755
0.16432 -0.2328 0.50531 -0.41634 0.86838 -0.26939
0.13813 -0.24673 0.49205 -0.35115 0.9267 -0.13385
0.12275 -0.25255 0.49095 -0.34907 0.93381 -0.078388
-0.11403 -0.25727 0.49434 0.30739 0.94682 -0.095118
-0.13915 -0.24681 0.50202 0.36856 0.91391 -0.17011
-0.16836 -0.22999 0.51376 0.47706 0.83338 -0.27909
0.097862 -0.26131 0.48691 -0.28661 0.95771 -0.025474
0.0681 -0.26863 0.48555 -0.17766 0.98406 -0.0082172
0.038794 -0.27204 0.48506 -0.074581 0.99721 -0.0023244
0.014092 -0.27301 0.48485 -0.018613 0.99983 -0.0001624
-0.0070283 -0.27302 0.48491 0.0015528 1 -0.00077644
-0.029766 -0.27286 0.48589 0.037876 0.99923 -0.010547
-0.057269 -0.27073 0.48787 0.12187 0.99208 -0.03042
-0.087573 -0.26511 0.49086 0.23387 0.9704 -0.060286
0.053699 0.30212 0.49694 -0.24317 -0.90341 -0.35316
0.065401 0.3075 0.47469 -0.28959 -0.89726 -0.33326
0.012772 0.30834 0.49811 -0.062425 -0.93931 -0.33735
0.032707 0.31346 0.47867 -0.13405 -0.93179 -0.33733
-0.022081 0.30892 0.49525 0.085766 -0.94553 -0.31405
-0.0025556 0.316 0.47738 0.016256 -0.94727 -0.32002
-0.053527 0.30423 0.4941 0.21047 -0.92979 -0.302
-0.040541 0.31325 0.47373 0.16706 -0.93508 -0.3126
-0.07676 0.29728 0.49611 0.31622 -0.89633 -0.3108
0.12011 0.27274 0.49583 -0.5187 -0.80365 -0.2917
0.12279 0.27712 0.47757 -0.5371 -0.78634 -0.30526
-0.13716 0.26469 0.49643 0.55898 -0.77444 -0.29628
-0.16152 0.25183 0.47679 0.665 -0.70097 -0.25771
0.18051 0.22161 0.48747 -0.73375 -0.64131 -0.22435
0.18014 0.22877 0.46842 -0.73678 -0.64285 -0.20953
0.16308 0.24121 0.4868 -0.68228 -0.68942 -0.2433
-0.17185 0.2369 0.49175 0.68954 -0.67924 -0.25133
0.20389 0.19561 0.47955 -0.78528 -0.59891 -0.15698
0.19637 0.20867 0.469 -0.77588 -0.60138 -0.19069
-0.19592 0.21056 0.48559 0.77505 -0.59815 -0.20377
0.22226 0.169 0.48421 -0.82859 -0.54801 -0.11456
-0.23281 0.15485 0.48372 0.87324 -0.45868 -0.1645
0.25144 0.11255 0.48169 -0.93089 -0.34513 -0.11973
0.24478 0.13374 0.46387 -0.89827 -0.42609 -0.10748
0.23873 0.1439 0.47525 -0.8822 -0.45841 -0.10763
-0.2439 0.13425 0.47431 0.90486 -0.39923 -0.1478
-0.25104 0.11316 0.48482 0.92597 -0.34248 -0.15902
0.26098 0.081417 0.48165 -0.95522 -0.25333 -0.1529
-0.25949 0.085264 0.48559 0.95174 -0.25747 -0.16703
-0.26554 0.078579 0.46051 0.95081 -0.25487 -0.17607
0.26982 0.054985 0.47225 -0.95153 -0.2217 -0.21317
0.2663 0.056 0.48668 -0.95787 -0.20006 -0.20604
-0.27383 0.02281 0.47526 0.98123 -0.09932 -0.16531
0.27262 0.0045655 0.49053 -0.96682 -0.059355 -0.24845
-0.27428 0.0019459 0.48063 0.98392 -0.038159 -0.17449
0.27378 -0.022657 0.48836 -0.96944 0.02152 -0.24438
-0.27402 -0.020994 0.4834 0.98326 0.0077722 -0.18207
0.27382 -0.046073 0.48282 -0.96786 0.076313 -0.23964
-0.27263 -0.045015 0.48704 0.97534 0.057239 -0.21315
0.26691 -0.06968 0.49905 -0.9533 0.12049 -0.27694
0.26494 -0.087139 0.49806 -0.94224 0.11745 -0.31366
-0.26525 -0.088862 0.49647 0.94577 0.11863 -0.30241
0.26098 -0.10722 0.50275 -0.91221 0.12649 -0.38971
-0.26007 -0.11254 0.50259 0.91728 0.17222 -0.35907
-0.2694 -0.10227 0.48046 0.94596 0.081236 -0.31396
0.25701 -0.1307 0.5031 -0.87009 0.20576 -0.44789
-0.24807 -0.14516 0.5099 0.84286 0.31377 -0.43718
-0.2617 -0.12792 0.49069 0.90098 0.18381 -0.393
0.23228 -0.17722 0.51064 -0.69966 0.48214 -0.52728
-0.22251 -0.18754 0.51227 0.68721 0.55888 -0.4641
0.17693 -0.23087 0.4954 -0.3669 0.85487 -0.36686
0.14612 -0.24669 0.47684 -0.25408 0.95091 -0.17666
0.13452 -0.25005 0.47379 -0.28916 0.9513 -0.10682
0.11703 -0.25587 0.46929 -0.2934 0.95476 -0.048509
-0.13001 -0.25361 0.4778 0.28194 0.95234 -0.11644
-0.15333 -0.24437 0.4895 0.33213 0.9156 -0.22663
-0.18547 -0.22411 0.50468 0.47563 0.7933 -0.38008
0.095494 -0.26232 0.46726 -0.26086 0.9652 -0.018217
0.067545 -0.26872 0.46596 -0.17105 0.98526 -0.0023453
0.038692 -0.27204 0.46571 -0.073564 0.99729 0.00020265
0.014083 -0.27301 0.46573 -0.01852 0.99983 0
-0.0070073 -0.27302 0.46559 0.001343 1 0.0013387
-0.028362 -0.27299 0.46575 0.024904 0.99969 0.00083634
-0.054392 -0.27157 0.46714 0.096986 0.99521 -0.011963
-0.084254 -0.26716 0.46924 0.20603 0.97792 -0.034855
-0.1097 -0.26009 0.47178 0.26841 0.96137 -0.060975
0.092587 0.2953 0.4786 -0.41722 -0.84537 -0.3336
0.092597 0.30306 0.45591 -0.41237 -0.86173 -0.29559
-0.08061 0.30169 0.47718 0.32725 -0.90009 -0.28765
-0.070989 0.31199 0.45581 0.28847 -0.9025 -0.3198
0.15266 0.25466 0.47477 -0.64658 -0.72018 -0.25154
-0.11592 0.28554 0.47673 0.46297 -0.83659 -0.29288
-0.14402 0.26993 0.4711 0.58864 -0.76513 -0.26092
-0.13413 0.28111 0.45603 0.5472 -0.80162 -0.24079
-0.18299 0.23307 0.46747 0.73863 -0.64309 -0.20214
-0.19186 0.22858 0.44356 0.77267 -0.60809 -0.18224
-0.20373 0.20773 0.4637 0.80135 -0.57122 -0.17762
0.22894 0.16322 0.46209 -0.84844 -0.51622 -0.1169
0.21357 0.18827 0.45704 -0.81818 -0.55153 -0.16245
-0.21781 0.18793 0.45807 0.83903 -0.52245 -0.15188
-0.2322 0.16308 0.46134 0.86789 -0.47528 -0.14448
-0.23874 0.15739 0.43853 0.87408 -0.46325 -0.14624
-0.24645 0.13536 0.4561 0.90033 -0.40474 -0.15995
0.25546 0.10944 0.46193 -0.92894 -0.34703 -0.12902
-0.25513 0.10935 0.46764 0.9308 -0.33105 -0.15498
0.26433 0.082327 0.46197 -0.94116 -0.29042 -0.17286
-0.27341 0.048142 0.45728 0.97177 -0.16481 -0.16883
0.27535 0.03248 0.46857 -0.96715 -0.14826 -0.20648
-0.27609 0.02455 0.45853 0.98527 -0.087828 -0.14675
0.27871 0.0042748 0.4651 -0.98083 -0.052808 -0.18755
-0.27753 -0.00011936 0.45708 0.99259 -0.020846 -0.11968
0.27979 -0.021002 0.46163 -0.9851 0.016804 -0.17115
-0.27763 -0.021417 0.45682 0.99433 0.010182 -0.10583
0.27981 -0.040458 0.45695 -0.9861 0.06244 -0.15398
-0.27722 -0.041461 0.45752 0.99381 0.021695 -0.10892
0.27513 -0.062797 0.47063 -0.97254 0.083534 -0.21721
-0.27592 -0.061327 0.4622 0.98791 0.031436 -0.15182
0.2729 -0.080719 0.4746 -0.96007 0.043875 -0.27629
-0.2737 -0.081886 0.47081 0.9724 0.055091 -0.22671
0.27108 -0.098969 0.47902 -0.94013 0.034566 -0.33906
0.26482 -0.12463 0.48961 -0.87946 0.1039 -0.4645
0.26917 -0.13472 0.48346 -0.78223 -0.014704 -0.62282
0.24923 -0.15934 0.50168 -0.71815 0.26232 -0.64455
-0.24778 -0.16107 0.49879 0.7752 0.31886 -0.54533
-0.26646 -0.13274 0.4815 0.81048 -0.0021006 -0.58576
0.22513 -0.19898 0.50213 -0.4464 0.48446 -0.75235
0.19201 -0.22442 0.49539 -0.32598 0.76515 -0.55523
0.15193 -0.24734 0.46915 -0.12222 0.94906 -0.29043
0.13978 -0.25065 0.4607 -0.15538 0.97353 -0.16759
0.12762 -0.25355 0.4522 -0.21259 0.97465 -0.06973
0.11456 -0.25725 0.44884 -0.26412 0.96411 -0.027195
-0.12309 -0.25788 0.45236 0.22351 0.97332 -0.051852
-0.13863 -0.25317 0.46383 0.19382 0.96919 -0.15201
-0.16371 -0.2434 0.48018 0.29136 0.9118 -0.28936
-0.19574 -0.22279 0.49549 0.41585 0.74918 -0.51556
-0.22696 -0.19394 0.50225 0.50836 0.43899 -0.74085
0.093968 -0.26289 0.44753 -0.2453 0.9694 -0.010132
0.067241 -0.26877 0.44737 -0.16801 0.98576 -0.0074486
0.038757 -0.27203 0.44762 -0.07421 0.99719 -0.0099326
0.013878 -0.27301 0.44744 -0.016467 0.99983 -0.008175
-0.0076898 -0.27302 0.4466 0.0081679 0.99997 0.0002242
-0.028562 -0.27282 0.44545 0.027209 0.99952 0.014576
-0.052101 -0.27178 0.4461 0.080904 0.9966 0.015357
-0.080093 -0.26822 0.44661 0.18014 0.9836 0.008744
-0.10511 -0.26237 0.44719 0.23662 0.97158 -0.0071601
0.058186 0.3164 0.45609 -0.25233 -0.91902 -0.30287
0.021018 0.32187 0.45732 -0.078474 -0.94734 -0.31047
-0.012365 0.3221 0.45793 0.053248 -0.94529 -0.32185
-0.039994 0.32044 0.45383 0.16436 -0.93274 -0.32092
0.12336 0.28494 0.45679 -0.54104 -0.7887 -0.29194
-0.10702 0.29738 0.45599 0.43513 -0.85612 -0.27878
-0.10018 0.30668 0.4375 0.41787 -0.86101 -0.2899
0.15178 0.26345 0.45561 -0.64518 -0.71408 -0.27174
0.15174 0.27081 0.43332 -0.64651 -0.72528 -0.23661
0.18081 0.23429 0.45006 -0.74476 -0.62334 -0.23826
0.17109 0.25097 0.43612 -0.71157 -0.66207 -0.23523
-0.16379 0.25794 0.45254 0.67829 -0.70239 -0.21581
0.1995 0.20992 0.45157 -0.78839 -0.58611 -0.18687
-0.21024 0.20325 0.44584 0.82205 -0.54875 -0.15198
0.23057 0.16596 0.43971 -0.85657 -0.49638 -0.14104
0.22361 0.18172 0.42622 -0.84409 -0.51454 -0.15085
0.2159 0.19004 0.44031 -0.82782 -0.53565 -0.16671
-0.2229 0.18356 0.44157 0.84902 -0.50838 -0.14393
0.24509 0.13757 0.44767 -0.89242 -0.4365 -0.11426
-0.24907 0.13529 0.44266 0.89938 -0.40832 -0.15618
0.25673 0.11222 0.44212 -0.91803 -0.37384 -0.13213
-0.25835 0.1115 0.44511 0.92686 -0.3397 -0.15982
-0.26345 0.10735 0.42102 0.92608 -0.34126 -0.161
0.2727 0.063257 0.44698 -0.95681 -0.24346 -0.15888
0.27028 0.082615 0.42515 -0.94678 -0.29975 -0.11727
0.26545 0.09157 0.43938 -0.93303 -0.32761 -0.14874
-0.26903 0.082894 0.43731 0.94744 -0.26834 -0.1742
-0.27467 0.055301 0.44215 0.96762 -0.18278 -0.17406
0.27985 0.03138 0.44103 -0.98346 -0.13119 -0.12491
-0.2783 0.025232 0.44242 0.98299 -0.075241 -0.16753
0.2828 0.0031063 0.43659 -0.99482 -0.039003 -0.093848
-0.27936 -0.001548 0.44158 0.98931 0.00405 -0.14575
0.28297 -0.021158 0.43395 -0.99698 0.019867 -0.075017
-0.27929 -0.023869 0.43733 0.99428 0.038343 -0.099672
0.28197 -0.042497 0.43672 -0.99427 0.046622 -0.096222
-0.27892 -0.04114 0.43376 0.99782 0.019247 -0.063142
0.28061 -0.059693 0.44266 -0.98886 0.021017 -0.14734
-0.27881 -0.057133 0.43534 0.99735 -0.011563 -0.071857
0.27989 -0.074868 0.44725 -0.9798 -0.025251 -0.19836
-0.27839 -0.074071 0.44374 0.99069 -0.024133 -0.13398
0.27879 -0.089126 0.45467 -0.95551 -0.080585 -0.28372
-0.27611 -0.090563 0.45663 0.97549 -0.0055937 -0.21999
0.28412 -0.095314 0.44458 -0.89734 -0.27256 -0.34711
0.27582 -0.10692 0.46902 -0.89298 -0.10235 -0.43831
-0.27304 -0.11147 0.46926 0.93023 0.0099268 -0.36684
-0.2796 -0.092043 0.44412 0.9163 -0.22705 -0.32991
0.28016 -0.15132 0.4744 -0.71703 -0.070695 -0.69345
0.25504 -0.16756 0.49466 -0.58362 0.14145 -0.79961
0.14137 -0.25219 0.4554 0.029777 0.95229 -0.30375
0.12746 -0.25457 0.44078 -0.018915 0.98905 -0.14635
0.1222 -0.25564 0.43303 -0.14945 0.98694 -0.060119
0.11255 -0.25805 0.42914 -0.24008 0.9706 -0.017221
-0.11466 -0.25956 0.42266 0.14852 0.98858 0.025606
-0.12696 -0.25724 0.44012 0.10248 0.99174 -0.07712
-0.1429 -0.25413 0.45752 0.05384 0.96265 -0.26534
-0.25741 -0.16048 0.49055 0.63535 0.078264 -0.76825
-0.28499 -0.13301 0.46133 0.73533 -0.23017 -0.63743
0.24213 -0.20468 0.49221 -0.39696 0.38259 -0.83429
0.19334 -0.23407 0.4853 -0.084271 0.68094 -0.72748
0.16285 -0.24572 0.47224 0.011874 0.85775 -0.51393
0.094094 -0.26291 0.42874 -0.24444 0.9696 -0.01114
0.068529 -0.26868 0.42993 -0.177 0.98396 -0.022028
0.039932 -0.27226 0.43084 -0.080609 0.9962 -0.03289
0.013803 -0.27335 0.43081 -0.012434 0.99933 -0.034422
-0.0093965 -0.27312 0.42966 0.025995 0.99942 -0.022154
-0.031191 -0.27241 0.42701 0.051677 0.99863 0.007648
-0.054129 -0.27084 0.42444 0.094712 0.99447 0.045397
-0.074851 -0.26866 0.42731 0.15741 0.98612 0.05284
-0.09847 -0.26329 0.423 0.21877 0.97432 0.053265
-0.16307 -0.2445 0.47762 0.0062759 0.82092 -0.57101
-0.20596 -0.22236 0.49399 0.21904 0.56002 -0.79899
-0.24609 -0.20042 0.49084 0.4329 0.29535 -0.85169
-0.28047 -0.18636 0.47206 0.62023 0.10695 -0.7771
0.090243 0.31076 0.43599 -0.39823 -0.87157 -0.28596
0.051098 0.32433 0.43548 -0.21504 -0.92583 -0.31082
0.063376 0.32904 0.41282 -0.26843 -0.91963 -0.28676
0.010533 0.32901 0.43799 -0.039317 -0.9505 -0.30821
0.030674 0.33431 0.4164 -0.11044 -0.95178 -0.28621
-0.023072 0.32863 0.43572 0.095682 -0.95165 -0.29189
-0.0029043 0.33596 0.41509 0.025813 -0.96266 -0.2695
-0.053221 0.32383 0.43547 0.20677 -0.93497 -0.28822
-0.038417 0.33325 0.41203 0.15457 -0.95052 -0.26948
-0.076655 0.31679 0.4378 0.31419 -0.90074 -0.29992
0.12314 0.29349 0.43456 -0.5378 -0.80152 -0.26143
0.12365 0.29831 0.41587 -0.54361 -0.79545 -0.26788
-0.13848 0.28436 0.43639 0.56774 -0.77837 -0.26797
-0.16235 0.27058 0.41726 0.67813 -0.69581 -0.23663
-0.17383 0.25499 0.43105 0.71239 -0.66516 -0.22374
0.20742 0.20672 0.4275 -0.81533 -0.54822 -0.18625
0.19968 0.22355 0.41109 -0.8032 -0.57016 -0.1726
0.18974 0.23216 0.42789 -0.77532 -0.59422 -0.21397
-0.19358 0.23287 0.42375 0.78564 -0.58799 -0.19246
-0.21078 0.20837 0.4261 0.82284 -0.54623 -0.15673
-0.21854 0.20135 0.40195 0.83841 -0.52509 -0.14614
-0.22755 0.18229 0.42218 0.85013 -0.50557 -0.14725
0.24729 0.13799 0.42776 -0.89319 -0.43158 -0.12629
0.23667 0.16186 0.41808 -0.86917 -0.47279 -0.14493
-0.24091 0.16002 0.41625 0.87415 -0.46454 -0.14168
-0.25155 0.13492 0.42779 0.90295 -0.40454 -0.14502
0.26106 0.11025 0.41903 -0.92001 -0.37293 -0.12047
-0.27247 0.080944 0.42162 0.94707 -0.26919 -0.17491
0.27767 0.058112 0.42054 -0.97265 -0.2115 -0.09604
-0.27579 0.061803 0.42759 0.96333 -0.20017 -0.17868
0.28254 0.027793 0.41451 -0.99387 -0.096486 -0.054034
-0.28124 0.032752 0.42452 0.97461 -0.1068 -0.19678
-0.28676 0.028312 0.40147 0.97436 -0.10342 -0.19982
0.28412 0.00082929 0.41097 -0.99948 -0.018053 -0.026597
-0.28196 -0.0018622 0.42839 0.97991 0.024522 -0.19792
-0.28583 -0.0034405 0.41061 0.97645 0.037725 -0.21244
0.28397 -0.021356 0.411 -0.99952 0.014576 -0.027208
-0.2806 -0.027977 0.42445 0.98321 0.093217 -0.15687
0.28357 -0.040329 0.41319 -0.9988 0.012964 -0.047275
-0.27965 -0.045049 0.41735 0.99346 0.065624 -0.093466
0.28333 -0.05625 0.41604 -0.99686 -0.021454 -0.07626
-0.27968 -0.05595 0.41384 0.99855 -0.022931 -0.048691
0.28371 -0.06886 0.41887 -0.98922 -0.094023 -0.1123
-0.27994 -0.066673 0.41988 0.99122 -0.10538 -0.079916
0.28492 -0.077953 0.42188 -0.95741 -0.23086 -0.17339
-0.27964 -0.083562 0.43859 0.97347 -0.1143 -0.19823
0.28728 -0.11087 0.45026 -0.83098 -0.3032 -0.46641
-0.28054 -0.10649 0.45468 0.82091 -0.28443 -0.49518
-0.28852 -0.086616 0.41891 0.81579 -0.48247 -0.31892
0.11759 -0.25698 0.42085 0.090548 0.9874 -0.12975
0.11619 -0.25737 0.41394 -0.085448 0.99475 -0.056345
0.11051 -0.25865 0.41019 -0.21858 0.97566 -0.017733
-0.10858 -0.25926 0.40138 0.18551 0.9804 0.066308
-0.11077 -0.25806 0.39856 0.027016 0.99794 0.058164
-0.11488 -0.25902 0.41673 -0.10234 0.99337 -0.052348
-0.29893 -0.10193 0.4186 0.7947 -0.48279 -0.36792
0.29568 -0.17947 0.45991 -0.70406 0.022769 -0.70978
0.27145 -0.19464 0.4774 -0.57499 0.23087 -0.78491
0.15876 -0.26195 0.44587 0.21494 0.86366 -0.45595
0.13977 -0.2573 0.44306 0.25404 0.88693 -0.38577
0.12496 -0.25691 0.43051 0.21116 0.94817 -0.23744
0.095124 -0.2628 0.41013 -0.25443 0.96699 -0.014294
0.071386 -0.26866 0.41301 -0.19875 0.9794 -0.035807
0.043708 -0.27268 0.4156 -0.10265 0.99271 -0.063198
0.015506 -0.27405 0.41608 -0.015621 0.99661 -0.080798
-0.011318 -0.2737 0.4145 0.051369 0.99637 -0.067859
-0.034913 -0.2723 0.41068 0.090106 0.99566 -0.023451
-0.059829 -0.26952 0.40705 0.14337 0.98943 0.021659
-0.08619 -0.26469 0.4055 0.19604 0.97836 0.066209
-0.12399 -0.25835 0.43486 -0.24677 0.93405 -0.25819
-0.13361 -0.25786 0.44619 -0.2834 0.87741 -0.38709
-0.15628 -0.25862 0.4571 -0.17794 0.84167 -0.50982
-0.31015 -0.14352 0.4341 0.80366 -0.26398 -0.53334
0.24231 -0.24183 0.46916 -0.24985 0.56734 -0.78466
0.20208 -0.25253 0.46638 -0.033688 0.74527 -0.66591
-0.19109 -0.25362 0.46935 -0.0086949 0.73456 -0.67849
-0.23331 -0.24526 0.47119 0.22654 0.58873 -0.77593
-0.28698 -0.21911 0.45859 0.57224 0.27302 -0.77331
0.091533 0.31718 0.41729 -0.40668 -0.86487 -0.2943
0.090924 0.32398 0.3944 -0.39412 -0.88382 -0.25207
-0.079214 0.32182 0.41758 0.31602 -0.91102 -0.26492
-0.065313 0.33305 0.39258 0.2518 -0.93032 -0.26666
0.15343 0.2757 0.41273 -0.65725 -0.71834 -0.22805
-0.11546 0.30535 0.41808 0.45983 -0.8436 -0.2773
-0.1448 0.28889 0.41203 0.59901 -0.76369 -0.24075
-0.13371 0.30089 0.39605 0.5505 -0.80864 -0.20749
0.17959 0.24948 0.41241 -0.7402 -0.64509 -0.18964
-0.18372 0.25141 0.4072 0.75701 -0.62882 -0.17751
-0.19167 0.24643 0.38312 0.78441 -0.60194 -0.14958
-0.20276 0.22597 0.40466 0.81371 -0.55981 -0.1565
0.22534 0.18357 0.41033 -0.84797 -0.50536 -0.1599
0.21468 0.20445 0.40171 -0.83176 -0.52898 -0.16838
-0.23227 0.17912 0.40552 0.85606 -0.49677 -0.14276
0.24961 0.13959 0.40543 -0.89578 -0.4225 -0.13807
0.24457 0.1555 0.3898 -0.88213 -0.44717 -0.14797
0.23812 0.16431 0.40142 -0.87149 -0.46796 -0.14668
-0.24102 0.16453 0.399 0.87294 -0.4678 -0.13836
-0.25408 0.13869 0.40396 0.89743 -0.41766 -0.14207
-0.26153 0.12928 0.37783 0.91328 -0.38913 -0.12042
0.27144 0.08552 0.40585 -0.9507 -0.29506 -0.095384
0.26297 0.11248 0.39638 -0.92313 -0.36286 -0.12714
-0.26711 0.10929 0.39715 0.92716 -0.34658 -0.14236
-0.27225 0.089574 0.40812 0.94163 -0.29806 -0.15651
0.27974 0.055193 0.39676 -0.98268 -0.17672 -0.055706
-0.27954 0.062025 0.40835 0.96182 -0.21382 -0.17082
-0.28555 0.056007 0.37985 0.96614 -0.22168 -0.13203
0.28344 0.024914 0.39192 -0.99747 -0.067404 -0.022808
0.28417 -0.00025788 0.38972 -0.99996 -0.0082412 -0.004127
0.28417 -0.02047 0.39 -0.99997 0.0028434 -0.0068907
-0.28284 -0.027249 0.41373 0.97256 0.12321 -0.19734
0.28416 -0.038671 0.39093 -0.99985 -0.0061991 -0.016242
-0.28149 -0.050302 0.40066 0.97951 0.14715 -0.1375
0.28446 -0.054534 0.39133 -0.99892 -0.040134 -0.023499
-0.28058 -0.058905 0.39594 0.99774 0.012066 -0.066096
0.28507 -0.065734 0.3894 -0.99216 -0.12316 -0.021403
-0.28051 -0.06187 0.39826 0.9863 -0.15554 -0.054912
0.28844 -0.079643 0.40263 -0.90093 -0.41265 -0.1343
0.28597 -0.070188 0.38064 -0.96428 -0.26489 -0.002983
-0.28167 -0.071472 0.41455 0.95746 -0.24874 -0.1463
-0.28319 -0.075645 0.41493 0.88687 -0.40108 -0.22932
0.30156 -0.12826 0.43702 -0.82706 -0.31745 -0.4639
0.29575 -0.093283 0.4065 -0.84699 -0.48687 -0.21345
0.11073 -0.25878 0.39532 0.16822 0.98341 -0.067946
0.11157 -0.25853 0.39234 -0.036684 0.99882 -0.031845
0.10899 -0.25925 0.39051 -0.20339 0.97903 -0.011992
